ncols        687
nrows        31
xllcorner    452566
yllcorner    4611886
cellsize     30.000000000000
NODATA_value  -9999
1270 1283 1288 1298 1298 1297 1312 1311 1311 1310 1328 1338 1349 1373 1383 1391 1396 1420 1429 1437 1448 1469 1468 1465 1441 1441 1437 1432 1412 1404 1391 1368 1354 1339 1328 1300 1301 1312 1321 1312 1316 1319 1302 1302 1298 1300 1293 1303 1311 1321 1333 1333 1329 1315 1317 1319 1322 1308 1313 1322 1325 1343 1349 1347 1350 1351 1351 1358 1357 1351 1339 1335 1324 1313 1303 1299 1279 1264 1261 1248 1234 1219 1209 1195 1185 1180 1169 1160 1155 1169 1163 1159 1160 1173 1176 1174 1172 1166 1165 1165 1171 1171 1173 1184 1183 1183 1186 1198 1192 1178 1178 1164 1148 1137 1121 1100 1093 1088 1089 1079 1072 1080 1072 1062 1051 1049 1047 1051 1059 1074 1088 1100 1107 1117 1131 1146 1134 1107 1082 1079 1059 1046 1051 1063 1043 1018 994 974 951 925 901 895 900 900 919 922 922 930 919 910 912 927 922 915 910 922 924 926 933 927 920 910 905 888 888 882 871 861 849 846 831 824 820 832 827 820 826 826 821 818 832 835 836 843 835 843 843 862 870 877 882 900 904 909 929 931 929 923 923 924 931 966 978 978 974 988 988 988 984 982 979 973 967 964 965 969 965 968 970 962 965 968 968 965 968 964 960 955 957 957 952 943 942 951 954 957 956 945 938 929 918 909 897 888 881 873 867 861 853 848 848 844 832 820 812 801 791 782 773 763 757 751 745 739 735 729 721 715 713 711 702 702 693 683 679 677 676 665 666 664 661 653 658 660 653 650 648 646 638 635 625 620 618 618 611 598 592 589 588 579 579 569 526 511 503 492 479 474 470 465 461 456 451 439 439 433 423 402 401 404 397 396 381 371 343 328 308 284 276 270 270 270 271 275 279 316 316 317 348 342 328 317 319 324 342 361 368 371 374 393 396 393 377 347 343 348 371 371 370 372 384 375 357 360 371 386 395 417 433 437 432 450 450 457 473 465 447 430 444 439 443 459 456 444 423 424 407 389 381 381 360 373 389 408 433 452 460 472 486 504 504 522 540 567 582 601 605 616 609 606 630 626 611 598 605 592 579 568 565 567 563 578 571 561 545 559 543 523 524 518 505 494 502 483 470 480 470 465 472 479 491 509 524 536 552 565 596 615 629 643 656 659 672 672 679 693 703 680 682 681 674 685 701 711 705 706 706 708 703 716 727 747 759 780 803 843 866 880 893 917 923 916 906 895 885 885 879 865 853 851 839 827 813 804 796 790 794 823 844 867 884 907 920 937 955 961 972 995 1010 1019 1030 1047 1051 1059 1071 1091 1101 1114 1138 1150 1160 1169 1182 1182 1177 1163 1166 1165 1165 1148 1147 1142 1133 1122 1113 1105 1110 1103 1093 1082 1063 1046 1028 1013 1000 979 958 941 920 920 899 876 871 870 850 851 851 847 822 817 813 789 790 793 788 762 755 755 761 757 757 757 738 734 730 722 718 722 733 775 793 806 818 844 853 852 844 866 866 851 840 829 829 834 856 870 884 910 915 910 905 920 921 922 923 938 939 938 948 943 932 923 918 896 896 868 853 828 805 787 786 781 777 784 774 759 764 758 754 749 747 734 717 714 698 698 684 678 664 652 641 649 640 635 642 632 619 607 607 610 623 633 642 654 668 672 672 682 693 696 705 703 681 688 699 709 715 726 739 744 759 777 791 800 820 839 854
1258 1269 1290 1302 1309 1311 1329 1331 1332 1332 1348 1353 1363 1392 1400 1405 1412 1442 1453 1453 1463 1459 1455 1450 1426 1421 1418 1416 1397 1393 1381 1357 1341 1327 1311 1287 1288 1296 1305 1299 1299 1302 1283 1283 1285 1282 1293 1302 1310 1315 1320 1318 1315 1299 1300 1302 1304 1290 1299 1309 1308 1308 1325 1342 1344 1350 1354 1365 1365 1358 1348 1350 1341 1328 1313 1308 1291 1275 1269 1256 1242 1226 1213 1213 1198 1188 1184 1175 1173 1180 1173 1168 1168 1182 1184 1178 1180 1173 1171 1174 1183 1182 1184 1184 1196 1195 1194 1205 1202 1195 1180 1161 1144 1134 1120 1108 1102 1096 1096 1089 1084 1080 1084 1071 1059 1060 1060 1056 1059 1078 1086 1098 1109 1120 1137 1150 1142 1113 1096 1079 1072 1067 1068 1076 1057 1025 998 999 977 949 926 914 907 915 932 936 936 930 929 926 927 938 934 927 926 933 935 936 946 945 937 929 926 913 898 882 878 869 859 858 844 832 833 846 840 832 838 838 834 831 847 847 849 847 853 847 856 873 881 889 894 912 918 924 946 951 945 932 939 937 946 946 981 990 990 1005 1001 991 986 980 977 972 964 961 961 962 963 965 964 962 958 960 960 954 959 959 956 950 953 954 950 940 938 947 946 949 948 945 933 928 919 911 901 889 889 881 873 867 858 850 843 838 826 817 809 801 787 778 770 762 756 748 742 732 729 729 720 714 709 710 706 697 689 683 673 667 665 659 660 661 660 650 652 658 650 648 644 644 634 633 633 626 622 611 605 590 587 585 583 564 562 546 512 506 497 486 474 471 471 468 462 458 455 446 437 427 417 393 388 389 383 376 363 353 324 305 292 284 269 270 270 274 282 292 303 339 344 347 374 365 352 336 329 328 349 361 371 379 383 380 383 383 378 350 350 360 375 378 378 384 401 385 359 360 380 395 408 434 448 460 454 470 470 470 490 477 465 454 457 460 462 459 459 451 438 437 421 405 395 389 372 371 390 408 408 430 440 450 466 486 507 529 550 576 595 610 618 625 619 628 640 635 626 617 618 618 601 583 582 583 582 593 586 576 569 579 563 537 540 546 535 515 518 505 488 480 506 494 475 476 476 493 514 538 558 575 600 622 641 648 634 645 660 672 669 683 687 670 670 666 663 667 682 696 685 686 690 693 709 725 737 747 782 793 813 850 869 885 907 911 921 929 921 912 902 892 890 875 863 851 843 829 815 811 804 797 801 828 848 866 879 879 902 921 942 958 974 995 1027 1032 1040 1062 1065 1073 1082 1103 1110 1125 1154 1167 1176 1180 1184 1181 1175 1167 1151 1151 1149 1135 1135 1138 1133 1124 1121 1116 1110 1103 1093 1079 1057 1038 1023 1023 1009 993 976 961 941 919 898 879 858 852 840 835 830 825 807 800 795 789 770 766 765 752 751 746 744 741 740 740 727 723 718 717 739 746 752 775 807 821 834 861 870 865 865 881 886 876 864 846 836 844 867 881 896 924 929 924 919 932 936 937 937 950 950 950 963 964 956 944 934 913 889 865 843 820 800 812 807 802 793 798 785 773 781 775 766 766 765 753 744 737 724 705 690 677 669 664 658 665 657 652 655 645 631 617 607 612 612 626 631 637 647 651 663 673 683 679 685 685 676 687 697 706 708 718 730 734 747 764 764 785 803 821 839
1258 1271 1292 1308 1318 1324 1344 1349 1351 1351 1368 1372 1380 1380 1407 1414 1423 1455 1465 1469 1466 1439 1435 1431 1405 1397 1395 1395 1380 1379 1370 1357 1330 1314 1314 1286 1277 1276 1283 1274 1282 1284 1263 1264 1267 1276 1293 1302 1310 1315 1307 1302 1299 1280 1282 1282 1282 1270 1279 1287 1286 1297 1308 1325 1328 1345 1355 1365 1370 1365 1356 1360 1354 1343 1327 1320 1302 1302 1296 1278 1261 1248 1238 1218 1202 1191 1191 1189 1186 1193 1184 1178 1178 1192 1193 1187 1188 1184 1184 1182 1197 1196 1194 1196 1215 1210 1207 1210 1202 1192 1176 1159 1145 1133 1125 1119 1113 1106 1108 1101 1101 1099 1104 1097 1083 1078 1070 1069 1069 1092 1100 1103 1113 1123 1139 1151 1150 1122 1107 1093 1088 1088 1084 1090 1083 1066 1029 1000 978 944 937 932 928 928 946 952 952 942 940 938 939 949 949 945 940 949 945 945 957 955 950 938 934 921 906 892 889 878 869 868 856 849 848 859 859 855 861 856 855 850 861 860 864 861 870 860 868 889 896 903 908 921 929 938 963 963 967 960 958 958 958 966 989 999 1005 1011 999 990 984 976 974 968 961 958 955 957 956 956 958 958 950 952 954 948 954 953 950 951 953 954 948 940 932 941 937 939 939 937 928 928 925 918 912 904 892 885 877 867 855 846 839 833 819 813 806 796 786 777 768 767 762 755 747 738 730 723 713 707 706 709 701 694 687 680 670 662 657 655 656 657 656 651 648 645 642 646 645 639 632 626 623 624 618 611 599 585 579 579 576 549 538 523 517 510 504 495 485 473 467 465 456 455 452 442 433 420 409 391 381 382 366 356 347 336 321 304 287 276 269 270 270 292 306 318 332 360 369 372 383 376 361 348 338 325 344 344 350 362 370 355 358 360 358 350 355 367 379 389 393 399 408 396 371 367 393 403 403 427 442 458 471 487 491 490 498 479 469 463 467 471 474 465 459 454 447 441 429 416 416 410 396 384 384 394 410 428 440 450 465 487 514 535 557 585 603 617 629 635 634 634 635 637 641 640 640 626 608 591 600 599 598 617 611 600 586 589 571 544 556 567 567 564 563 538 520 510 530 521 499 497 477 491 512 528 550 572 599 624 638 638 623 639 639 651 642 657 667 662 663 653 653 660 670 679 663 672 678 691 722 736 751 766 802 802 812 842 860 873 891 897 908 919 920 918 911 903 898 885 873 859 850 833 821 821 815 815 808 815 828 848 862 876 898 917 943 964 991 1014 1039 1048 1055 1082 1086 1092 1096 1121 1121 1132 1159 1169 1182 1186 1180 1176 1166 1155 1141 1138 1135 1120 1123 1126 1128 1125 1122 1115 1099 1099 1093 1086 1066 1052 1034 1020 1009 993 977 962 943 922 904 890 864 849 845 833 824 816 806 806 796 790 779 766 756 752 752 750 744 744 733 729 732 732 730 734 766 772 775 791 801 819 833 864 880 890 880 904 906 887 872 854 843 854 879 893 908 924 943 938 934 947 947 949 950 961 961 962 977 977 966 950 931 909 886 865 843 823 813 838 836 827 814 832 812 800 806 797 789 780 773 760 749 737 717 703 690 686 681 678 673 679 673 666 670 655 642 631 612 607 616 626 629 634 640 645 653 661 669 660 666 667 672 683 693 701 693 701 709 721 724 740 761 790 808 825 840
1260 1274 1295 1312 1324 1335 1354 1354 1362 1366 1384 1387 1391 1399 1423 1433 1444 1469 1463 1453 1445 1422 1419 1410 1405 1378 1377 1379 1360 1362 1362 1356 1332 1320 1303 1279 1268 1258 1265 1254 1262 1265 1263 1251 1259 1275 1292 1307 1315 1315 1308 1297 1286 1262 1262 1263 1266 1260 1269 1278 1286 1286 1297 1309 1318 1341 1354 1365 1373 1374 1368 1391 1378 1364 1354 1339 1328 1314 1296 1293 1269 1254 1246 1226 1206 1194 1203 1201 1200 1203 1195 1190 1190 1200 1204 1204 1195 1201 1199 1196 1215 1214 1211 1216 1227 1224 1217 1212 1202 1189 1173 1163 1148 1136 1136 1132 1129 1125 1126 1117 1112 1108 1111 1106 1095 1089 1083 1080 1081 1102 1106 1109 1113 1123 1140 1140 1152 1154 1142 1123 1129 1108 1096 1098 1085 1069 1033 996 969 945 937 948 945 947 961 966 966 962 955 950 951 962 960 955 949 959 954 955 957 963 957 947 942 929 915 901 902 891 891 894 880 871 866 875 869 864 861 873 872 865 872 872 878 881 897 883 885 913 913 913 914 927 929 936 947 977 983 975 975 974 975 982 1007 1013 1018 1007 997 987 980 971 968 968 964 957 952 951 949 950 952 951 945 946 947 941 946 947 948 952 954 952 948 938 938 926 921 929 932 930 923 924 922 918 913 906 895 886 878 866 855 840 834 827 818 818 812 806 796 786 776 767 761 753 744 737 730 718 713 705 704 704 698 693 686 679 667 667 660 652 651 652 653 650 648 641 642 640 640 637 632 623 620 619 611 607 597 583 583 572 568 550 539 529 517 508 504 497 487 472 462 457 450 451 447 435 423 412 405 399 391 373 370 349 341 331 301 286 271 269 270 273 279 312 333 345 355 380 388 393 383 378 381 377 356 345 339 337 343 351 355 350 349 350 349 352 355 367 379 389 396 404 407 414 406 384 390 405 412 438 452 466 479 496 501 502 498 484 472 470 476 478 474 464 459 455 452 443 437 426 418 411 406 396 384 397 413 430 449 458 473 492 522 544 563 574 593 608 622 639 641 639 635 624 641 648 650 634 616 605 617 618 618 632 629 621 621 605 586 563 548 576 590 587 576 549 533 531 553 546 528 515 486 487 507 522 544 572 572 595 619 629 607 618 631 640 627 637 645 641 642 642 651 653 656 661 663 674 689 689 720 736 750 765 791 810 829 847 859 868 880 877 893 911 920 925 918 909 904 894 881 881 873 855 838 837 832 825 817 820 829 846 862 886 900 917 950 971 994 1017 1049 1069 1069 1090 1100 1104 1109 1135 1142 1152 1159 1183 1187 1185 1172 1169 1158 1149 1134 1124 1119 1108 1110 1110 1113 1115 1119 1115 1106 1087 1080 1075 1054 1045 1032 1019 1003 989 977 958 945 928 910 895 876 876 858 848 837 828 819 811 802 791 778 764 754 761 765 767 759 763 750 739 732 754 754 753 779 789 794 794 815 832 847 881 898 909 906 924 920 901 872 860 855 866 890 890 904 921 954 955 952 964 961 961 961 974 975 975 977 986 969 949 930 911 888 865 857 857 838 863 862 858 851 845 830 819 806 815 801 788 771 758 743 731 709 700 690 701 701 697 692 703 694 681 670 642 630 623 611 609 619 626 627 630 635 634 639 646 654 647 647 653 653 665 674 684 682 690 700 712 725 744 767 796 812 825 828
1253 1263 1279 1301 1317 1331 1344 1363 1374 1381 1402 1406 1410 1416 1443 1454 1465 1458 1442 1432 1426 1404 1404 1398 1389 1363 1359 1358 1335 1339 1342 1339 1319 1309 1294 1275 1259 1241 1246 1237 1244 1248 1250 1238 1243 1258 1276 1292 1311 1318 1291 1281 1270 1248 1246 1247 1250 1251 1260 1269 1277 1280 1292 1305 1317 1317 1338 1352 1365 1378 1388 1407 1396 1378 1362 1354 1338 1327 1314 1310 1280 1261 1256 1238 1219 1207 1221 1215 1214 1224 1213 1206 1201 1213 1217 1216 1207 1220 1216 1212 1230 1230 1228 1229 1235 1228 1222 1224 1214 1202 1191 1181 1167 1152 1139 1141 1137 1132 1131 1125 1122 1117 1118 1111 1102 1098 1094 1093 1094 1105 1108 1112 1114 1122 1125 1140 1153 1162 1159 1144 1156 1136 1114 1103 1082 1061 1029 1002 976 957 957 969 970 966 989 978 980 971 964 963 963 973 971 966 961 970 968 968 966 970 963 954 960 948 935 923 923 915 905 907 895 885 880 885 877 872 873 886 883 877 881 882 894 894 917 914 905 926 933 929 926 939 941 949 964 991 993 990 986 982 985 994 1022 1025 1025 1014 1004 994 983 970 966 964 961 954 951 949 946 946 946 946 941 940 940 938 940 943 943 945 954 953 949 940 933 923 916 918 923 922 918 920 919 916 911 905 895 883 872 872 860 845 834 828 822 819 813 806 792 785 775 766 759 751 743 736 729 716 708 704 702 702 696 694 689 684 669 662 657 652 646 649 650 649 648 640 636 634 636 637 630 624 624 620 609 602 598 593 587 575 561 549 536 524 514 505 501 496 482 471 461 451 446 446 441 438 423 411 401 384 382 363 356 334 325 318 286 272 269 269 274 283 299 312 348 348 363 384 393 395 386 366 365 367 357 356 351 342 348 348 352 350 351 352 351 360 360 362 368 378 383 394 408 425 422 401 403 413 424 438 462 477 488 501 504 506 502 491 491 475 479 483 483 470 454 450 447 443 439 428 419 420 412 404 392 409 424 441 468 468 475 485 520 537 557 580 595 610 625 636 631 622 617 618 647 656 657 647 630 621 639 639 638 652 648 642 629 598 578 559 558 598 608 601 583 559 548 551 574 563 546 530 530 498 485 498 517 544 574 586 605 608 597 609 619 627 613 620 631 623 630 640 649 641 641 644 650 675 689 704 735 746 763 778 796 812 832 833 845 855 864 868 888 909 922 924 929 921 916 908 899 888 880 862 846 850 842 835 826 826 833 849 866 903 913 927 944 958 977 999 1034 1054 1076 1095 1111 1122 1131 1154 1161 1165 1173 1186 1183 1177 1163 1156 1149 1149 1137 1129 1115 1100 1098 1101 1105 1108 1108 1105 1098 1078 1065 1058 1035 1028 1022 1016 995 978 969 962 949 937 924 899 888 875 862 845 834 825 815 807 801 792 775 764 757 773 780 786 786 797 783 769 759 781 783 777 798 812 817 815 832 846 863 894 910 923 926 937 930 930 911 891 866 866 891 903 917 936 967 972 967 980 978 975 975 989 988 990 991 989 972 972 951 931 912 891 876 862 861 885 882 877 862 859 851 838 827 823 803 789 770 756 756 738 724 716 712 729 725 717 711 709 692 676 661 633 632 626 611 610 621 625 623 625 625 624 628 631 635 632 639 647 653 657 665 671 669 681 695 710 730 751 773 795 805 805 810
1255 1268 1284 1303 1321 1337 1351 1373 1388 1396 1419 1426 1429 1435 1462 1469 1469 1469 1436 1423 1413 1382 1381 1379 1371 1343 1337 1334 1312 1320 1323 1323 1307 1298 1288 1275 1247 1247 1224 1214 1222 1228 1233 1232 1243 1259 1276 1293 1304 1301 1273 1263 1254 1248 1233 1233 1240 1242 1248 1248 1259 1265 1278 1292 1306 1322 1338 1352 1369 1383 1399 1407 1407 1392 1376 1372 1350 1337 1326 1319 1319 1294 1286 1270 1255 1236 1244 1235 1230 1224 1230 1219 1215 1231 1233 1231 1221 1240 1235 1229 1243 1243 1242 1241 1247 1240 1232 1224 1215 1205 1195 1181 1166 1154 1144 1150 1145 1138 1136 1131 1128 1124 1124 1124 1118 1108 1108 1105 1104 1115 1116 1118 1120 1129 1134 1142 1158 1171 1173 1168 1171 1156 1131 1103 1103 1075 1054 1041 1020 994 974 997 998 990 1016 1004 994 978 984 978 975 973 986 978 970 984 984 980 981 989 979 969 965 955 943 932 932 924 916 907 910 902 893 896 889 885 887 902 899 893 900 889 897 909 931 931 926 926 953 954 943 959 959 969 982 999 1002 996 1001 994 1000 1004 1031 1032 1025 1014 1001 990 976 964 962 960 958 953 950 946 942 943 943 941 938 937 936 937 939 941 940 944 953 949 944 929 923 919 914 908 912 914 916 918 917 917 912 907 901 887 878 867 855 843 830 825 818 818 811 804 789 783 774 766 757 749 742 740 735 727 716 707 703 699 693 689 683 678 662 656 651 646 642 645 648 646 647 640 640 633 630 633 627 626 624 620 605 595 591 590 589 582 562 551 538 522 510 501 495 495 485 473 464 458 454 445 433 428 412 401 389 371 365 352 344 322 310 298 276 268 269 269 274 283 298 315 343 353 375 384 391 385 374 367 367 363 369 366 358 356 359 352 352 361 369 362 373 387 373 371 374 385 386 394 406 426 430 417 418 423 436 450 474 485 485 496 502 505 506 505 489 478 489 492 488 467 451 448 448 446 450 435 429 426 415 415 406 409 426 444 483 491 498 507 540 552 565 580 590 610 625 616 608 601 606 624 624 651 646 659 659 648 660 657 655 652 660 649 627 594 570 562 577 612 620 611 593 572 572 570 594 589 573 555 536 510 487 496 511 539 564 565 583 589 587 595 607 612 596 596 606 614 620 628 635 625 634 643 659 686 696 714 726 748 771 784 786 800 815 833 811 829 839 847 869 888 911 921 929 928 927 914 904 894 887 869 857 850 853 845 835 833 833 838 856 892 912 925 952 964 988 1010 1035 1057 1078 1095 1117 1135 1148 1164 1170 1177 1185 1178 1177 1173 1159 1153 1146 1143 1132 1123 1110 1100 1090 1092 1099 1099 1097 1094 1090 1072 1058 1044 1021 1021 1018 1015 997 989 976 962 941 926 910 890 877 866 857 845 835 825 814 807 799 790 778 767 764 766 786 797 804 812 800 789 782 805 804 801 817 828 835 835 851 857 876 876 905 920 934 953 949 937 919 902 875 879 902 916 931 950 979 987 984 980 992 990 989 1005 1003 1004 1005 1015 993 974 953 932 912 892 891 884 883 885 900 888 870 877 866 855 855 845 822 803 788 771 756 738 736 732 731 729 741 733 724 697 681 666 650 646 649 632 640 613 609 618 614 616 619 624 623 626 629 630 635 641 648 649 657 662 667 682 698 698 712 730 751 773 774 785 791
1256 1270 1285 1305 1323 1341 1357 1382 1399 1410 1423 1435 1443 1448 1472 1471 1468 1454 1418 1401 1389 1362 1362 1359 1353 1325 1320 1313 1287 1296 1305 1305 1295 1298 1293 1281 1259 1234 1212 1203 1209 1216 1220 1231 1244 1260 1275 1288 1289 1284 1254 1245 1239 1239 1223 1220 1224 1227 1234 1241 1252 1264 1277 1291 1308 1326 1340 1355 1377 1391 1410 1418 1408 1401 1401 1401 1388 1367 1347 1340 1326 1305 1307 1290 1274 1259 1264 1254 1250 1244 1247 1236 1229 1249 1250 1250 1246 1256 1255 1250 1259 1255 1253 1250 1249 1243 1234 1225 1216 1207 1197 1181 1167 1158 1152 1155 1150 1150 1145 1140 1136 1133 1135 1131 1124 1116 1117 1115 1115 1124 1123 1125 1127 1138 1140 1144 1158 1175 1175 1181 1193 1180 1162 1138 1100 1072 1056 1054 1036 1017 1011 1031 1020 1019 1016 1021 1006 991 1012 1005 1005 998 1014 1006 992 1002 1000 998 998 1004 991 976 965 961 950 940 941 934 926 919 925 925 915 916 908 901 902 915 911 906 900 910 911 923 943 946 948 941 964 973 966 982 982 981 986 1008 1015 1012 1001 1011 1018 1026 1040 1030 1018 1009 993 980 970 962 959 958 955 951 951 946 943 938 940 940 934 934 934 936 938 941 939 937 944 943 936 921 914 913 914 905 902 905 906 915 917 915 907 901 895 883 876 866 855 844 830 824 818 815 807 798 789 789 781 772 761 754 746 738 732 724 715 706 700 696 693 684 677 671 659 652 647 643 638 635 635 633 640 643 639 634 629 626 627 623 623 616 602 593 585 588 587 587 568 572 556 542 525 512 501 493 485 468 456 454 446 441 428 420 405 394 382 362 352 347 337 331 317 299 288 269 269 270 279 300 315 329 344 356 374 375 381 377 372 370 368 365 365 379 380 370 388 377 360 372 384 373 389 400 383 382 385 400 404 399 406 421 429 428 431 434 435 443 467 480 489 497 503 507 507 503 488 486 489 504 492 466 453 450 458 458 466 459 443 436 427 417 406 425 444 463 483 501 513 525 539 548 561 574 588 607 607 597 593 587 592 608 624 637 646 666 675 666 680 681 676 669 663 645 618 589 569 579 579 618 627 629 616 600 589 593 611 601 582 560 541 519 495 496 503 525 546 549 565 565 573 568 575 585 563 580 594 609 605 614 622 632 640 655 670 673 685 705 726 744 744 762 759 772 784 797 808 823 834 852 869 888 907 911 925 930 927 925 911 901 896 876 876 863 869 866 853 850 838 846 862 897 917 936 952 966 992 1012 1031 1056 1078 1098 1121 1121 1140 1150 1160 1170 1175 1163 1162 1161 1159 1146 1142 1138 1121 1114 1108 1095 1081 1084 1094 1088 1086 1086 1084 1072 1063 1050 1035 1017 1009 1001 982 975 966 956 934 922 905 889 878 867 856 845 845 832 817 808 800 792 770 771 773 774 795 812 818 828 818 810 806 828 828 823 835 835 847 854 873 869 875 890 921 935 947 967 958 946 926 910 889 891 913 930 947 963 988 988 999 999 1010 1008 1006 1022 1023 1022 1021 1021 997 979 950 927 911 897 909 902 903 902 920 914 898 901 890 874 861 845 825 805 788 770 753 742 749 746 748 744 739 732 716 686 686 671 656 659 666 663 652 626 610 611 617 621 618 618 621 624 627 629 632 635 641 635 644 651 657 670 684 696 701 721 740 758 756 767 773
1260 1275 1289 1308 1308 1321 1343 1369 1389 1409 1423 1449 1460 1466 1484 1470 1455 1435 1396 1382 1371 1346 1343 1338 1330 1309 1307 1304 1295 1265 1273 1285 1280 1287 1284 1276 1245 1223 1203 1193 1199 1208 1219 1231 1245 1260 1275 1272 1278 1274 1243 1235 1231 1226 1209 1209 1218 1220 1230 1239 1251 1260 1274 1290 1308 1329 1346 1361 1367 1380 1393 1405 1404 1405 1404 1412 1408 1387 1361 1355 1334 1323 1307 1309 1293 1277 1281 1269 1261 1261 1267 1262 1256 1268 1265 1262 1259 1270 1267 1264 1259 1265 1260 1254 1251 1245 1236 1226 1216 1206 1196 1195 1181 1171 1166 1167 1160 1152 1145 1142 1140 1138 1142 1139 1132 1123 1125 1125 1126 1137 1134 1135 1135 1148 1147 1145 1146 1167 1179 1189 1200 1192 1170 1139 1112 1085 1066 1062 1049 1044 1039 1052 1047 1044 1044 1051 1034 1022 1036 1033 1027 1021 1031 1020 1007 1015 1014 1014 1012 1019 1009 990 974 969 956 956 954 948 943 938 948 938 927 927 919 916 916 926 923 921 916 927 924 935 955 961 961 966 982 983 988 1000 996 996 1001 1028 1029 1025 1010 1028 1035 1039 1030 1017 1009 1003 980 970 970 961 959 958 956 952 946 941 940 935 934 936 931 931 932 934 933 937 937 928 930 930 932 920 916 907 904 897 895 898 903 911 913 910 901 896 889 880 874 866 855 845 832 832 823 817 812 806 800 789 778 768 758 751 743 734 727 719 713 704 698 693 690 683 683 673 663 656 649 642 633 630 629 625 633 637 637 634 628 625 623 614 612 608 597 597 592 581 568 578 583 570 560 547 530 517 505 495 484 471 457 446 429 421 415 411 393 393 386 370 359 348 340 323 308 290 279 269 269 273 290 311 324 336 340 351 368 365 365 372 374 372 371 371 373 380 381 380 390 381 365 377 390 375 395 396 391 390 396 412 412 420 411 415 413 422 433 442 447 452 471 484 492 501 505 510 509 508 500 502 503 523 512 492 470 460 459 466 468 463 449 441 432 421 410 430 451 472 492 493 510 526 518 530 540 551 565 584 596 572 573 575 591 595 611 627 642 682 689 685 707 702 696 680 683 658 637 608 585 585 603 635 644 638 620 614 607 613 627 611 589 567 546 525 502 525 515 506 511 513 533 545 558 548 555 560 553 571 589 599 603 611 623 648 651 662 662 647 655 669 688 714 737 747 750 766 781 794 814 826 837 849 863 880 900 903 917 926 926 942 935 921 917 905 890 873 885 883 867 858 847 853 870 896 910 931 950 959 986 986 1007 1031 1053 1079 1101 1121 1135 1139 1151 1163 1167 1154 1151 1151 1151 1137 1135 1130 1106 1101 1099 1099 1081 1073 1077 1072 1073 1072 1074 1064 1055 1042 1027 1012 1002 990 972 960 953 948 924 913 913 891 884 875 865 849 837 826 817 797 787 780 779 785 785 781 798 818 832 848 841 841 837 857 853 848 845 861 865 871 894 890 895 909 939 950 962 981 969 953 932 919 902 902 907 925 943 960 988 1001 1013 1016 1026 1023 1023 1038 1038 1038 1035 1025 999 977 950 933 933 926 936 926 925 922 931 921 909 911 897 879 862 847 826 806 788 778 765 757 768 768 762 757 736 727 715 687 675 661 654 678 683 674 652 646 624 614 631 627 624 620 621 621 623 625 628 630 632 634 642 648 657 665 678 688 684 704 726 741 742 751 759
1249 1267 1283 1304 1316 1329 1348 1378 1398 1419 1435 1464 1475 1485 1476 1458 1438 1416 1384 1384 1371 1341 1324 1319 1314 1293 1288 1282 1277 1251 1253 1267 1263 1271 1271 1265 1232 1213 1193 1189 1196 1196 1207 1217 1231 1245 1259 1259 1258 1253 1225 1221 1217 1213 1195 1198 1210 1220 1226 1236 1247 1260 1260 1274 1289 1319 1335 1353 1372 1381 1389 1398 1398 1402 1407 1412 1419 1407 1381 1373 1349 1335 1324 1334 1323 1309 1307 1293 1281 1272 1278 1274 1271 1268 1278 1275 1272 1284 1280 1275 1270 1271 1264 1258 1253 1253 1246 1236 1225 1215 1205 1195 1184 1178 1173 1173 1164 1155 1147 1144 1144 1143 1150 1149 1142 1133 1145 1138 1136 1139 1151 1146 1147 1162 1157 1153 1153 1170 1182 1195 1203 1198 1177 1147 1136 1105 1075 1062 1069 1062 1060 1074 1068 1065 1062 1064 1051 1043 1048 1043 1039 1036 1047 1031 1019 1015 1027 1027 1025 1037 1034 1028 1011 999 977 965 963 957 953 951 963 950 937 927 931 928 928 938 936 937 937 950 945 938 960 967 972 980 996 997 1002 1000 1007 1011 1020 1039 1043 1038 1028 1036 1040 1036 1024 1015 1007 1000 979 970 962 961 957 956 955 950 942 938 937 931 928 929 928 928 929 929 925 925 926 929 919 918 919 910 909 900 898 888 887 892 897 906 906 902 894 890 885 885 875 869 864 852 843 834 825 820 815 809 804 790 777 765 753 746 740 734 721 715 715 707 701 696 692 687 679 669 659 650 642 636 628 626 624 625 623 633 637 630 627 627 625 618 604 598 585 587 587 578 561 563 572 570 563 551 535 523 509 496 485 474 458 458 441 421 409 398 380 375 376 370 350 343 334 313 296 283 271 269 271 277 297 314 314 325 331 341 350 359 365 376 375 373 373 374 377 379 379 384 386 379 369 378 396 396 377 389 388 394 398 410 418 429 426 437 430 427 437 448 457 463 477 491 499 501 514 514 515 521 522 523 524 530 512 490 472 465 465 468 470 466 457 441 435 427 413 424 424 443 465 472 488 503 517 527 533 549 562 570 577 572 567 574 586 601 613 640 661 685 685 701 720 721 714 702 680 656 632 608 594 608 624 660 665 653 632 627 627 631 637 637 619 597 580 555 533 525 536 521 511 523 522 528 539 528 539 544 543 558 573 588 589 607 624 642 647 651 650 632 647 667 688 710 724 733 750 771 787 801 814 825 836 849 836 848 867 886 903 915 927 947 945 929 924 913 898 886 901 899 884 858 856 862 875 880 894 906 922 942 962 984 1016 1037 1056 1080 1098 1113 1125 1139 1152 1161 1160 1150 1144 1141 1140 1125 1124 1121 1101 1094 1087 1088 1072 1063 1068 1072 1051 1056 1061 1052 1046 1031 1020 1005 995 984 979 969 954 942 927 916 901 891 876 868 859 835 825 817 807 785 778 779 802 805 800 800 803 801 822 842 862 864 861 879 874 870 864 882 885 890 914 913 914 926 953 965 979 979 992 979 964 952 926 918 925 945 956 974 1002 1015 1027 1031 1041 1038 1037 1038 1055 1056 1056 1050 1024 998 972 962 956 949 954 949 944 938 936 926 920 911 900 883 865 846 826 826 807 800 790 781 780 770 758 746 723 711 699 678 667 663 671 696 699 685 666 663 651 651 654 644 636 629 630 624 623 625 627 629 631 634 639 645 651 652 666 675 672 686 686 707 708 728 738
1251 1270 1289 1304 1327 1344 1363 1397 1413 1433 1449 1478 1489 1489 1480 1461 1444 1421 1390 1374 1359 1341 1313 1301 1295 1269 1263 1263 1259 1235 1233 1247 1237 1249 1249 1253 1229 1220 1204 1190 1183 1193 1205 1216 1229 1242 1253 1240 1235 1231 1209 1205 1201 1197 1181 1192 1192 1204 1213 1223 1235 1253 1266 1281 1298 1327 1343 1360 1373 1380 1386 1393 1393 1398 1406 1414 1413 1413 1410 1395 1383 1365 1347 1344 1332 1321 1310 1300 1292 1283 1287 1285 1282 1280 1290 1289 1288 1296 1289 1289 1283 1281 1274 1266 1261 1254 1247 1236 1223 1212 1202 1193 1189 1184 1178 1176 1169 1159 1149 1150 1150 1150 1161 1161 1160 1154 1159 1149 1149 1152 1164 1161 1161 1175 1172 1163 1163 1172 1185 1198 1208 1208 1204 1187 1175 1153 1121 1087 1083 1075 1076 1095 1086 1081 1074 1076 1067 1057 1066 1059 1056 1055 1068 1068 1045 1035 1046 1042 1039 1047 1043 1037 1024 1011 990 973 975 971 968 969 980 963 946 936 947 942 940 949 948 950 951 969 964 958 974 985 986 992 1011 1016 1017 1015 1030 1031 1036 1056 1056 1054 1046 1034 1030 1028 1014 1007 998 988 974 967 963 960 954 954 953 943 939 935 933 929 928 926 920 921 922 925 913 912 911 915 909 905 904 900 902 897 892 881 879 887 880 890 898 899 893 889 884 880 868 863 858 848 841 833 826 822 820 815 806 790 775 761 756 747 741 735 722 716 711 703 699 694 690 685 676 666 653 641 634 631 623 620 615 615 607 614 622 621 625 626 625 615 601 587 571 577 578 573 552 548 555 562 554 549 536 536 525 512 500 485 474 459 437 420 407 392 374 361 358 356 338 335 328 301 290 273 273 269 269 273 285 300 312 320 339 344 349 355 369 378 374 372 374 375 378 378 383 383 389 386 381 373 374 393 379 382 388 395 403 420 428 437 442 451 445 439 449 455 464 464 482 487 496 508 523 525 523 533 539 543 541 530 510 487 474 471 470 471 473 471 471 463 454 439 430 426 422 437 453 477 494 506 513 517 533 548 546 551 556 560 575 587 587 626 629 631 643 667 687 707 728 729 718 703 682 655 635 609 608 623 641 673 680 680 671 662 648 644 660 649 630 604 585 569 558 548 558 543 532 542 528 521 523 528 528 530 570 559 554 571 584 609 626 638 639 636 628 631 649 670 691 697 708 725 751 774 774 790 792 806 819 827 827 840 864 883 903 916 924 945 957 938 933 921 910 899 911 911 906 893 874 862 871 891 897 907 920 942 969 994 1021 1041 1056 1078 1093 1108 1121 1136 1156 1156 1160 1156 1149 1140 1130 1117 1112 1109 1091 1084 1081 1079 1061 1052 1050 1051 1032 1037 1045 1039 1039 1038 1023 1012 1000 989 974 962 949 935 913 906 894 881 865 860 850 825 813 805 797 789 786 791 822 825 827 819 818 808 827 847 869 881 882 900 898 893 888 912 911 913 935 935 932 932 957 967 982 994 1003 988 972 961 941 937 946 967 969 985 1015 1029 1040 1045 1066 1064 1058 1055 1076 1076 1076 1045 1018 995 969 980 979 964 976 966 955 945 940 933 925 925 913 898 882 865 849 830 814 809 797 789 769 757 744 735 710 697 687 678 673 681 689 709 713 715 699 694 680 666 668 659 647 636 632 630 624 625 627 629 631 634 637 643 643 643 645 651 653 661 669 687 691 708 723
1261 1274 1290 1309 1335 1358 1380 1392 1412 1429 1446 1479 1492 1492 1480 1448 1428 1408 1380 1363 1348 1329 1305 1291 1278 1254 1249 1246 1246 1221 1213 1209 1224 1216 1226 1232 1213 1207 1196 1183 1176 1191 1203 1212 1224 1235 1238 1222 1218 1213 1213 1189 1186 1182 1164 1175 1190 1202 1218 1228 1242 1260 1273 1286 1306 1331 1349 1365 1373 1377 1382 1382 1380 1385 1391 1396 1390 1396 1397 1384 1380 1372 1358 1345 1333 1318 1310 1303 1298 1292 1295 1293 1292 1292 1302 1303 1303 1314 1308 1298 1288 1285 1276 1267 1261 1254 1246 1234 1220 1211 1204 1196 1193 1188 1188 1189 1181 1172 1163 1163 1161 1160 1161 1174 1174 1169 1173 1166 1163 1166 1177 1174 1174 1182 1177 1177 1171 1176 1180 1190 1201 1218 1213 1197 1186 1161 1133 1102 1110 1100 1098 1115 1105 1095 1087 1096 1086 1086 1077 1089 1082 1079 1088 1079 1064 1051 1059 1054 1050 1057 1054 1042 1029 1019 1001 985 975 995 995 993 1003 992 977 957 958 951 949 965 967 969 970 982 981 975 974 1003 1000 1002 1030 1032 1032 1032 1048 1050 1051 1071 1066 1053 1042 1026 1022 1019 1014 999 990 981 972 967 963 957 950 950 950 945 942 938 933 928 924 923 920 915 916 916 904 899 897 904 891 893 894 888 888 892 891 877 873 870 880 881 890 894 887 883 875 869 861 856 852 843 837 830 826 821 821 819 815 802 789 773 752 743 737 730 719 713 706 700 696 692 689 683 673 664 653 652 640 632 623 616 609 606 601 605 613 612 621 624 623 609 597 581 571 564 566 562 542 542 539 543 540 545 544 531 522 512 500 476 466 455 437 420 406 390 369 354 339 337 324 327 326 307 290 285 268 269 270 275 285 302 311 323 343 346 349 354 367 372 371 369 372 374 377 383 388 391 389 390 384 378 378 380 379 381 392 398 410 429 431 441 451 453 460 457 450 458 465 473 492 498 505 516 531 536 535 550 555 555 547 525 506 485 485 480 475 474 478 478 477 470 460 447 439 440 425 438 458 480 498 508 513 516 531 542 523 528 534 546 568 586 604 628 645 648 654 683 694 710 728 734 721 704 684 659 640 640 629 619 632 654 673 686 685 683 673 667 660 656 639 612 598 594 587 575 586 567 567 578 565 550 533 557 551 555 570 588 563 563 578 607 622 631 616 614 620 636 649 669 669 669 687 706 727 748 768 782 779 797 810 819 827 844 866 871 892 911 921 936 954 954 954 946 931 921 925 918 910 897 881 871 884 905 909 913 923 950 974 999 1021 1042 1042 1056 1074 1089 1105 1124 1149 1158 1159 1153 1148 1139 1128 1117 1107 1100 1091 1083 1079 1071 1056 1047 1047 1038 1028 1024 1028 1021 1025 1027 1021 1009 995 984 974 955 941 925 901 892 884 872 852 852 848 826 815 805 794 798 806 819 822 846 846 836 832 816 829 849 871 890 900 921 920 920 918 940 937 935 934 954 952 951 974 985 998 1008 1016 997 981 968 950 955 965 986 986 979 999 1031 1045 1057 1088 1088 1083 1078 1096 1095 1089 1044 1015 995 982 1002 990 981 976 984 971 957 950 942 933 925 909 895 882 867 853 837 821 806 794 782 769 743 738 729 699 699 686 679 686 694 702 730 732 730 715 710 696 683 668 674 660 645 640 641 629 625 625 627 630 634 635 637 641 642 644 645 653 652 661 674 675 689 704
1275 1275 1288 1299 1323 1342 1367 1404 1423 1441 1461 1491 1493 1481 1465 1435 1417 1399 1369 1350 1332 1316 1306 1297 1282 1258 1239 1226 1225 1200 1194 1191 1202 1194 1206 1211 1196 1195 1183 1169 1170 1185 1199 1206 1206 1216 1223 1206 1202 1198 1194 1166 1160 1160 1164 1177 1193 1206 1223 1233 1247 1260 1274 1286 1310 1313 1334 1354 1369 1370 1371 1374 1370 1376 1381 1385 1376 1380 1384 1372 1369 1366 1356 1336 1326 1318 1311 1307 1302 1299 1298 1298 1298 1300 1314 1315 1315 1320 1318 1307 1294 1288 1277 1267 1261 1254 1245 1233 1234 1222 1216 1211 1208 1200 1195 1195 1186 1177 1168 1170 1170 1171 1173 1186 1186 1182 1186 1179 1176 1176 1186 1186 1186 1194 1189 1184 1179 1185 1188 1194 1207 1225 1223 1209 1196 1170 1143 1124 1129 1120 1120 1132 1130 1125 1118 1126 1114 1104 1096 1104 1098 1093 1093 1083 1075 1066 1070 1062 1058 1066 1070 1051 1051 1040 1029 1017 1003 1017 1014 1009 1016 1007 992 974 977 966 964 996 994 995 990 1000 998 995 995 1013 1019 1021 1041 1043 1046 1047 1066 1071 1072 1071 1063 1048 1034 1021 1015 1012 1007 990 985 985 978 972 965 958 956 950 947 945 946 940 933 926 919 917 914 906 908 908 891 886 886 883 869 873 879 881 873 880 880 866 863 858 868 870 880 887 882 880 867 862 856 851 851 846 838 834 829 821 818 815 810 795 785 768 749 740 733 726 720 713 706 700 694 694 691 686 681 674 665 653 640 630 618 608 604 601 595 599 604 612 611 619 618 604 593 593 577 559 549 552 537 532 529 530 525 534 537 531 511 504 493 469 454 444 434 417 417 400 375 361 348 331 317 320 320 307 279 272 268 269 270 275 287 306 317 330 342 342 346 349 355 366 368 369 372 376 379 390 392 392 392 391 386 382 380 380 382 386 393 393 402 418 417 424 438 453 464 460 456 461 472 483 500 510 517 522 544 551 551 550 571 570 560 540 518 500 488 486 480 480 488 484 482 474 466 460 453 440 436 438 459 475 475 490 497 501 511 519 505 514 526 545 564 585 606 628 639 652 668 678 694 715 732 729 740 727 712 695 666 647 640 631 634 654 668 684 692 704 693 680 670 649 635 618 625 619 616 613 619 606 593 578 581 568 558 587 576 588 598 610 587 564 577 593 605 609 600 599 605 621 637 648 662 667 690 713 729 742 753 767 772 790 804 814 825 840 858 848 863 887 904 914 922 945 956 962 943 933 939 925 913 899 885 884 896 916 923 932 932 963 975 989 1002 1026 1041 1058 1075 1091 1109 1130 1156 1158 1156 1150 1145 1138 1129 1118 1107 1097 1097 1088 1081 1077 1060 1053 1046 1036 1028 1016 1015 1007 1012 1018 1017 1006 992 979 967 947 934 934 911 894 880 871 852 840 834 811 804 799 799 825 832 843 843 866 861 848 843 826 832 832 851 872 893 913 934 944 941 962 960 957 956 973 970 970 994 1002 1015 1025 1031 1008 1008 993 977 967 968 998 1006 1002 1020 1050 1059 1075 1103 1107 1101 1099 1110 1104 1084 1047 1029 1029 1016 1024 1011 1004 995 985 971 959 948 939 931 922 903 889 878 861 851 836 818 796 783 783 771 742 738 730 694 689 686 684 711 718 726 749 748 743 727 727 712 697 687 675 675 659 649 654 651 635 627 628 631 635 636 637 640 641 643 645 647 648 655 665 665 665 679
1271 1285 1300 1312 1345 1364 1384 1404 1431 1456 1475 1486 1476 1464 1451 1425 1425 1408 1381 1360 1338 1319 1296 1285 1271 1258 1229 1209 1204 1185 1181 1175 1182 1173 1184 1193 1182 1183 1183 1173 1149 1160 1175 1193 1197 1204 1209 1182 1179 1176 1170 1136 1139 1152 1164 1179 1195 1210 1224 1224 1234 1247 1261 1275 1289 1322 1339 1357 1368 1362 1361 1365 1360 1366 1370 1372 1360 1367 1370 1372 1355 1355 1350 1328 1322 1315 1311 1299 1298 1298 1297 1298 1301 1306 1317 1319 1320 1320 1322 1317 1300 1293 1293 1280 1269 1262 1254 1244 1242 1235 1228 1218 1216 1211 1204 1195 1193 1183 1175 1178 1178 1181 1184 1199 1202 1200 1210 1199 1191 1186 1194 1196 1197 1194 1197 1190 1186 1192 1192 1198 1216 1233 1233 1221 1208 1208 1181 1157 1151 1140 1135 1132 1131 1129 1130 1124 1117 1108 1105 1114 1117 1100 1086 1078 1076 1075 1070 1071 1064 1061 1062 1061 1051 1041 1035 1029 1023 1031 1037 1029 1029 1024 1013 995 1017 1006 996 996 1027 1016 1016 1027 1020 1017 1015 1032 1037 1041 1055 1057 1060 1064 1092 1090 1087 1078 1058 1040 1028 1025 1018 1011 1006 991 985 982 976 971 966 961 964 959 956 951 951 942 934 927 919 912 912 905 899 898 885 878 874 871 856 857 860 867 858 863 867 856 852 849 855 859 871 879 871 876 871 860 848 849 846 842 834 831 826 816 811 807 803 786 778 762 746 737 730 730 725 722 714 706 698 693 689 683 680 675 667 651 638 626 612 604 599 596 589 591 595 595 592 600 610 601 598 589 578 563 546 537 531 524 519 519 510 511 520 519 497 497 497 491 469 449 436 418 406 388 367 352 341 328 311 305 308 295 274 269 269 269 269 269 275 296 310 320 328 342 346 350 356 362 365 368 374 378 382 388 391 391 392 389 386 386 384 382 382 384 388 391 401 413 412 421 437 450 457 457 459 468 481 486 499 510 510 525 539 551 562 571 580 573 558 537 519 500 491 496 489 490 493 490 486 477 476 476 473 470 471 451 437 454 468 479 489 487 494 501 514 523 529 542 559 578 600 617 624 624 640 654 674 689 707 730 743 736 716 703 680 656 662 652 643 649 666 683 699 711 711 696 676 666 651 636 638 639 636 629 628 614 605 592 590 577 581 606 599 605 615 628 628 616 614 586 582 593 619 606 602 618 631 639 650 673 693 710 723 730 742 757 768 768 786 798 802 817 829 848 865 885 901 903 917 935 955 975 972 953 954 936 921 904 912 895 894 907 928 940 950 994 1002 1010 1017 1042 1050 1064 1085 1101 1118 1140 1158 1155 1152 1150 1145 1141 1135 1121 1113 1104 1095 1084 1078 1070 1052 1041 1036 1034 1022 1010 1003 1007 1002 1010 1010 997 1000 990 973 954 939 926 902 887 876 863 847 833 822 811 810 816 822 847 853 862 862 883 885 874 867 854 837 836 852 873 895 913 937 955 962 983 980 978 974 992 990 990 1010 1011 1016 1030 1051 1041 1017 993 997 983 989 1016 1027 1025 1042 1067 1076 1091 1115 1120 1116 1116 1125 1114 1097 1068 1067 1054 1040 1035 1027 1017 1000 989 974 959 948 938 927 917 892 879 869 869 850 839 824 797 784 770 756 732 721 706 704 702 704 706 737 743 749 749 761 752 752 747 733 718 702 675 661 648 663 669 661 643 629 628 634 635 637 637 639 639 641 641 643 643 646 651 652 658 671
1275 1291 1308 1326 1359 1381 1400 1413 1450 1468 1468 1471 1468 1460 1452 1432 1417 1399 1374 1350 1329 1310 1289 1275 1264 1250 1228 1204 1191 1174 1168 1161 1161 1143 1152 1164 1161 1171 1176 1169 1146 1148 1162 1180 1174 1183 1184 1160 1157 1150 1142 1122 1136 1136 1147 1162 1177 1193 1206 1220 1234 1244 1270 1285 1301 1332 1344 1355 1362 1347 1348 1353 1348 1353 1355 1355 1340 1346 1352 1356 1342 1338 1334 1313 1307 1304 1301 1290 1292 1295 1297 1297 1301 1309 1313 1317 1317 1319 1319 1321 1320 1315 1299 1284 1270 1263 1257 1247 1242 1251 1242 1229 1228 1224 1218 1205 1201 1201 1190 1190 1187 1187 1191 1217 1223 1219 1210 1214 1202 1195 1206 1208 1209 1205 1209 1199 1193 1199 1199 1199 1210 1230 1242 1246 1233 1214 1190 1170 1160 1148 1142 1136 1129 1125 1123 1095 1098 1100 1102 1097 1097 1098 1095 1070 1066 1067 1057 1060 1060 1059 1050 1048 1046 1036 1035 1034 1032 1035 1042 1040 1029 1031 1031 1028 1036 1036 1033 1031 1037 1034 1032 1049 1042 1036 1033 1058 1057 1057 1055 1076 1080 1085 1098 1098 1094 1089 1067 1052 1036 1024 1016 1008 1000 988 983 980 976 979 979 975 973 971 966 959 965 956 946 944 933 921 913 911 900 892 885 878 865 857 848 847 849 852 846 850 854 841 841 837 839 838 849 861 871 868 860 853 841 840 839 836 828 827 823 809 800 796 793 780 776 769 756 743 732 728 724 720 713 705 697 691 685 680 677 673 664 647 633 621 612 603 597 593 584 583 585 588 585 591 598 590 590 585 579 567 550 538 531 529 522 513 511 498 494 498 482 485 491 485 473 448 428 409 392 380 367 353 337 324 306 298 293 293 277 271 269 269 269 269 277 299 309 320 328 340 346 351 361 366 367 370 376 378 382 382 386 389 390 388 387 386 384 386 384 385 389 391 401 403 416 430 442 449 451 456 456 467 480 490 491 502 513 527 546 557 570 579 583 572 556 538 523 506 499 499 495 495 496 499 495 491 491 486 485 480 481 464 443 451 459 469 481 475 486 499 514 542 547 547 569 573 580 593 623 632 638 681 688 700 717 725 733 730 716 711 698 676 688 677 677 666 672 677 692 717 713 691 674 683 667 646 638 660 651 642 631 619 610 602 602 596 596 619 622 615 615 636 646 635 614 609 601 620 637 630 616 615 627 640 653 666 687 687 700 699 723 738 752 759 778 791 796 813 832 850 863 875 888 893 912 926 955 977 977 984 974 972 945 930 919 903 901 914 940 958 979 1007 1021 1032 1038 1058 1065 1076 1085 1112 1112 1131 1158 1154 1149 1146 1133 1133 1127 1113 1107 1099 1091 1079 1070 1059 1052 1028 1024 1024 1008 1008 1001 991 982 994 997 983 988 984 969 951 937 920 902 892 876 860 841 826 813 806 833 833 841 869 870 878 884 909 906 889 867 863 849 840 853 875 896 915 940 961 976 1001 1001 1004 1000 1021 1016 1011 1010 1028 1031 1044 1059 1048 1028 1005 1023 1007 1012 1034 1043 1051 1056 1084 1086 1091 1114 1124 1133 1130 1133 1120 1101 1085 1087 1072 1052 1054 1040 1024 1007 992 975 960 948 948 936 923 902 883 867 858 833 821 809 785 770 754 740 716 707 703 721 725 728 732 758 759 765 769 779 769 758 740 726 707 688 661 654 656 681 683 672 650 635 628 634 634 636 637 637 637 638 639 642 642 644 647 648 654 666
1275 1295 1312 1335 1344 1369 1392 1415 1441 1456 1469 1455 1451 1447 1442 1424 1412 1393 1374 1350 1327 1306 1291 1275 1261 1249 1247 1220 1200 1191 1175 1163 1148 1130 1131 1145 1161 1159 1167 1162 1143 1137 1147 1161 1153 1158 1162 1141 1140 1135 1128 1101 1114 1131 1147 1158 1174 1190 1214 1225 1241 1256 1282 1298 1315 1339 1347 1349 1349 1336 1333 1334 1341 1333 1336 1338 1320 1329 1338 1341 1327 1323 1318 1298 1293 1290 1290 1279 1283 1288 1288 1288 1292 1298 1301 1308 1313 1317 1316 1320 1322 1319 1306 1290 1272 1266 1263 1259 1256 1265 1257 1257 1256 1249 1244 1234 1236 1217 1198 1197 1194 1196 1209 1235 1239 1239 1227 1229 1218 1208 1222 1224 1224 1224 1236 1226 1214 1217 1211 1212 1220 1232 1240 1242 1230 1205 1187 1175 1152 1148 1142 1133 1119 1109 1109 1088 1084 1083 1089 1081 1083 1085 1080 1058 1052 1052 1041 1047 1049 1051 1039 1037 1037 1029 1030 1030 1030 1022 1026 1030 1033 1027 1030 1033 1033 1036 1038 1037 1045 1047 1048 1065 1063 1061 1057 1079 1077 1077 1076 1096 1094 1097 1099 1091 1087 1082 1062 1047 1034 1022 1011 1005 996 985 984 981 981 993 993 989 986 983 980 973 973 964 953 953 938 928 920 919 908 898 890 887 870 856 850 842 842 843 832 835 838 827 824 823 832 828 836 850 862 858 853 846 839 836 831 829 823 823 821 806 799 790 782 770 766 763 754 740 729 726 721 717 709 703 697 690 683 678 678 675 671 655 640 625 612 594 590 587 580 578 580 583 581 583 587 580 582 581 579 573 573 556 548 544 533 527 516 500 492 484 464 471 481 479 479 455 429 416 395 381 366 373 358 341 320 302 294 285 276 269 269 269 269 269 283 300 312 322 329 341 348 354 366 366 368 370 374 376 378 385 389 388 388 388 387 386 386 390 388 388 392 395 407 409 423 431 439 445 449 452 458 475 486 497 499 511 519 534 550 565 577 588 583 572 556 560 543 528 513 511 504 502 502 506 501 497 505 499 494 489 494 478 459 468 460 461 465 462 475 492 509 526 550 565 577 586 597 612 653 664 672 695 701 710 718 712 724 725 725 718 713 708 713 706 699 689 690 692 704 724 717 698 692 694 676 663 663 677 664 649 648 632 625 624 632 611 611 638 640 629 620 650 663 655 638 629 610 627 643 645 633 633 643 630 634 640 654 673 687 684 710 730 746 746 761 778 797 816 833 848 852 860 860 865 893 910 928 950 972 988 988 983 958 935 928 912 907 923 946 972 995 1021 1038 1049 1049 1067 1072 1082 1093 1119 1132 1149 1153 1144 1139 1133 1118 1120 1118 1104 1099 1093 1085 1072 1065 1065 1054 1035 1023 1013 997 994 989 979 973 981 979 973 974 973 965 949 938 921 905 883 883 869 845 830 816 815 847 856 865 892 893 906 908 931 925 902 879 875 860 849 858 879 879 899 920 941 965 993 1014 1025 1027 1041 1033 1029 1027 1043 1046 1053 1067 1056 1038 1028 1042 1042 1031 1058 1051 1067 1077 1103 1106 1107 1114 1127 1132 1135 1114 1114 1110 1100 1088 1077 1065 1044 1036 1036 1024 1005 992 976 960 945 931 918 893 872 856 842 818 807 796 768 753 745 730 715 715 717 720 748 749 754 781 782 785 783 788 770 753 732 714 694 674 661 663 671 681 698 695 680 667 643 628 633 635 636 636 635 636 638 640 641 643 645 648 651 659
1262 1287 1302 1318 1355 1375 1398 1422 1445 1449 1455 1433 1433 1434 1432 1419 1406 1388 1368 1353 1353 1329 1309 1295 1276 1262 1249 1235 1210 1191 1186 1163 1144 1121 1111 1128 1144 1150 1158 1154 1134 1134 1124 1133 1125 1133 1138 1141 1121 1118 1109 1092 1104 1123 1140 1162 1178 1196 1222 1235 1250 1267 1275 1291 1311 1326 1338 1341 1340 1320 1319 1321 1327 1314 1317 1316 1299 1314 1325 1329 1311 1306 1303 1298 1283 1280 1278 1266 1268 1273 1280 1281 1288 1293 1299 1305 1310 1313 1315 1319 1323 1319 1313 1295 1276 1285 1275 1274 1272 1281 1278 1269 1270 1265 1259 1250 1256 1237 1213 1197 1209 1219 1228 1252 1256 1253 1244 1256 1244 1233 1245 1245 1245 1243 1249 1238 1227 1217 1221 1222 1225 1229 1231 1227 1221 1189 1175 1164 1145 1139 1136 1132 1115 1109 1098 1088 1073 1071 1076 1065 1069 1069 1068 1039 1033 1034 1019 1026 1034 1034 1021 1024 1026 1027 1013 1015 1016 1004 1011 1016 1022 1012 1019 1027 1025 1030 1034 1038 1040 1049 1057 1057 1064 1071 1076 1081 1085 1091 1096 1104 1106 1106 1096 1083 1076 1074 1057 1044 1032 1022 1009 1003 1003 998 995 991 993 1003 998 992 994 990 986 978 981 974 965 953 946 935 929 924 916 906 906 900 891 881 875 857 837 827 815 821 828 827 803 807 819 814 821 836 850 847 847 847 841 837 835 832 826 817 814 806 788 782 774 761 758 760 754 736 727 724 718 714 714 708 701 695 687 682 674 672 666 650 632 616 602 588 584 582 575 572 575 578 577 576 576 577 573 576 577 575 572 560 554 550 537 528 514 502 491 476 460 460 471 479 477 477 465 459 436 407 390 381 365 344 316 296 288 282 272 269 269 269 268 272 287 302 317 317 325 335 343 350 360 366 367 371 375 378 381 385 404 402 392 389 388 388 389 402 402 391 413 407 400 412 423 436 442 445 451 456 463 479 492 505 510 523 524 536 547 547 564 580 591 589 579 560 550 534 521 520 509 510 510 521 516 512 523 514 508 502 504 504 491 479 490 473 462 465 472 487 506 516 540 561 571 590 615 636 664 681 689 695 697 698 703 690 704 717 721 708 713 717 727 723 713 703 712 707 720 724 724 717 710 702 702 690 691 704 685 665 647 638 646 657 637 624 629 638 661 644 629 658 675 669 650 658 640 625 628 640 655 656 668 648 639 640 654 658 670 677 696 716 731 736 757 777 781 796 817 830 827 838 849 865 893 910 929 941 963 982 990 992 972 944 937 921 915 935 942 951 979 1002 1031 1046 1061 1080 1094 1105 1113 1139 1152 1158 1141 1135 1131 1120 1108 1109 1108 1108 1094 1090 1085 1070 1064 1057 1048 1027 1019 1006 986 982 977 970 965 968 965 973 961 957 957 946 938 927 915 885 873 858 834 822 825 834 869 880 888 892 911 925 930 952 937 911 911 902 886 873 871 866 882 902 924 946 972 993 1021 1040 1047 1067 1057 1048 1045 1063 1062 1062 1079 1077 1064 1052 1071 1060 1059 1058 1080 1090 1100 1122 1122 1122 1124 1114 1113 1113 1092 1096 1099 1099 1074 1070 1062 1051 1027 1023 1016 997 987 973 958 937 925 910 880 863 846 832 805 793 793 783 752 743 731 728 733 738 745 766 770 770 796 801 800 796 789 768 749 732 708 708 685 669 674 681 691 714 704 687 674 652 631 630 633 635 635 635 635 637 640 640 641 641 643 644 649
1276 1303 1315 1331 1361 1382 1405 1432 1440 1437 1434 1433 1416 1420 1420 1414 1417 1404 1388 1373 1351 1328 1308 1292 1275 1261 1255 1249 1226 1207 1183 1161 1142 1110 1097 1097 1110 1119 1140 1150 1140 1124 1112 1117 1107 1115 1119 1122 1107 1102 1095 1084 1096 1120 1142 1166 1166 1186 1210 1226 1241 1259 1281 1298 1317 1328 1323 1323 1321 1301 1303 1305 1310 1294 1295 1296 1281 1299 1299 1313 1294 1292 1290 1287 1269 1267 1266 1258 1261 1265 1272 1277 1285 1292 1297 1302 1308 1311 1315 1315 1320 1329 1338 1321 1301 1302 1294 1287 1284 1293 1288 1280 1284 1279 1275 1266 1273 1260 1238 1214 1235 1235 1240 1271 1273 1271 1266 1267 1257 1249 1260 1258 1258 1255 1256 1246 1235 1227 1229 1227 1228 1225 1225 1221 1213 1185 1169 1157 1130 1125 1123 1119 1103 1100 1091 1080 1053 1051 1059 1040 1044 1047 1044 1024 1021 1016 999 1003 1009 1015 1002 1007 1009 1012 991 993 998 987 992 998 1004 995 1004 1015 1011 1011 1020 1026 1020 1029 1041 1055 1057 1067 1076 1075 1083 1095 1102 1109 1110 1106 1093 1078 1067 1065 1053 1049 1039 1029 1015 1008 1001 1012 1007 1003 1003 1007 1000 997 1002 997 992 988 979 977 968 958 958 950 941 928 922 916 908 899 890 884 876 861 841 819 809 806 809 809 786 790 806 785 795 805 823 825 836 843 835 835 834 832 821 814 807 797 776 770 765 747 742 748 748 732 726 721 714 713 711 707 699 692 683 678 669 667 662 643 628 608 594 582 580 578 572 569 567 571 571 573 570 571 568 572 574 567 564 559 555 548 534 524 514 498 491 491 472 456 452 460 456 466 467 459 441 422 399 385 367 341 316 290 285 279 270 269 269 269 269 269 275 293 307 319 327 335 343 352 360 367 368 372 378 381 385 393 414 417 417 416 394 388 390 402 404 395 413 409 410 413 432 437 441 446 452 458 467 480 495 495 511 521 531 534 550 559 565 578 596 602 590 569 559 542 533 529 519 522 522 540 538 538 553 546 537 525 533 518 510 500 507 491 478 474 469 480 496 512 531 553 577 593 593 616 649 669 682 692 678 681 684 686 697 702 702 702 714 723 735 738 737 726 732 727 727 731 736 732 726 728 717 710 710 706 681 661 656 654 663 660 647 646 662 663 675 675 651 643 665 679 675 665 648 635 636 636 656 674 683 673 660 655 677 677 675 690 690 685 698 715 735 764 773 786 801 817 823 838 851 868 887 906 918 932 957 978 993 1000 1000 983 969 948 937 928 948 962 986 1011 1037 1050 1065 1090 1107 1119 1129 1155 1159 1154 1135 1135 1127 1123 1105 1098 1095 1096 1083 1081 1076 1057 1048 1042 1037 1016 1006 996 982 976 969 964 962 956 956 955 945 945 945 935 927 916 901 873 858 846 828 835 845 857 892 902 910 911 933 932 942 966 969 951 921 915 898 884 884 876 887 906 929 953 978 999 1028 1049 1067 1075 1086 1082 1072 1086 1080 1079 1093 1088 1076 1072 1089 1083 1089 1086 1101 1110 1117 1136 1128 1124 1119 1106 1099 1092 1057 1065 1072 1075 1049 1045 1037 1032 1011 1007 1003 985 977 963 950 925 913 898 880 866 853 839 809 794 783 766 745 735 727 748 752 762 766 786 787 789 812 813 808 808 798 785 769 752 728 703 681 688 698 706 711 724 712 695 680 655 630 630 633 634 634 634 635 636 637 638 639 640 641 643 646
1294 1318 1328 1343 1361 1394 1416 1435 1426 1429 1426 1422 1405 1399 1406 1399 1406 1401 1390 1374 1351 1324 1308 1295 1278 1265 1253 1244 1220 1220 1192 1172 1154 1119 1100 1087 1098 1103 1123 1139 1140 1114 1099 1100 1087 1096 1104 1106 1087 1088 1088 1070 1081 1099 1119 1144 1167 1190 1210 1230 1245 1265 1288 1302 1314 1319 1301 1301 1300 1281 1283 1287 1287 1271 1274 1275 1275 1267 1282 1290 1277 1277 1274 1272 1258 1258 1258 1251 1254 1260 1268 1273 1283 1283 1291 1293 1301 1308 1315 1318 1326 1336 1344 1329 1314 1321 1311 1303 1296 1303 1299 1291 1284 1294 1289 1289 1299 1292 1281 1266 1275 1268 1269 1287 1285 1282 1276 1278 1268 1262 1260 1270 1268 1264 1263 1251 1251 1242 1240 1233 1229 1223 1217 1210 1200 1171 1157 1141 1130 1111 1109 1107 1088 1083 1076 1066 1032 1032 1030 1015 1020 1024 1025 1004 1005 1002 999 986 991 997 979 982 987 989 970 974 979 969 975 975 981 976 983 991 1002 998 1007 1014 1010 1018 1030 1044 1042 1056 1067 1066 1076 1088 1100 1104 1104 1106 1102 1090 1077 1061 1049 1040 1032 1024 1016 1013 1011 1018 1014 1011 1012 1011 1006 1005 1002 998 998 991 976 973 971 966 952 946 937 921 915 910 904 894 886 881 876 860 845 824 810 810 800 793 782 776 777 769 777 789 810 812 824 832 835 832 833 830 814 809 799 785 775 766 761 743 732 727 728 716 716 714 714 709 710 706 694 687 678 673 662 661 656 638 638 624 601 583 579 576 572 559 561 567 565 562 564 566 562 564 568 555 556 556 554 544 531 516 510 489 489 487 466 448 442 447 439 449 458 446 438 425 404 379 358 332 308 300 286 281 273 269 269 269 269 269 277 290 306 319 327 336 346 355 363 368 370 374 375 379 381 386 405 418 422 421 409 396 395 408 405 405 420 417 421 427 440 439 439 439 448 454 462 475 481 492 508 513 529 543 550 567 574 582 607 614 604 582 568 555 544 559 544 533 535 555 559 558 553 563 559 545 550 540 536 524 511 498 489 482 469 475 475 497 520 537 558 586 607 629 660 671 674 676 654 660 669 679 682 683 691 706 716 716 727 732 744 755 759 751 744 745 751 745 737 744 734 726 718 705 686 673 656 672 675 675 678 668 676 688 699 682 655 655 673 688 683 673 657 647 636 640 652 676 689 688 688 680 700 696 694 713 711 705 699 717 731 753 773 776 788 806 822 837 851 867 877 895 895 907 928 955 980 996 1005 994 969 955 945 940 962 979 998 1020 1044 1056 1071 1098 1113 1113 1126 1155 1167 1159 1147 1128 1112 1107 1092 1087 1082 1082 1066 1066 1062 1039 1033 1029 1024 1000 1000 992 986 986 983 973 978 960 946 943 933 929 932 922 916 905 890 862 849 836 828 852 852 865 898 910 922 930 952 951 958 982 980 962 935 930 912 897 884 886 895 913 936 936 960 982 1008 1032 1054 1077 1093 1101 1093 1100 1095 1093 1093 1102 1093 1095 1105 1105 1109 1106 1117 1117 1126 1134 1127 1119 1112 1092 1083 1068 1057 1044 1050 1052 1027 1023 1019 1014 996 994 990 965 965 958 946 914 905 893 880 852 841 826 800 785 768 754 743 740 748 768 770 777 783 801 806 807 806 826 820 809 792 777 764 748 724 697 681 712 722 729 730 732 719 702 680 680 648 630 631 632 633 634 639 639 639 641 640 640 640 642 644
1305 1329 1329 1342 1360 1391 1410 1422 1417 1417 1416 1411 1394 1387 1388 1386 1394 1397 1392 1375 1352 1326 1309 1310 1297 1280 1261 1246 1226 1209 1173 1157 1140 1102 1086 1078 1083 1084 1105 1116 1122 1103 1095 1089 1082 1075 1078 1083 1064 1067 1068 1066 1088 1102 1121 1149 1168 1191 1213 1232 1250 1269 1288 1296 1299 1301 1279 1280 1280 1263 1263 1264 1267 1254 1255 1255 1258 1259 1270 1275 1265 1263 1261 1259 1249 1250 1250 1242 1243 1247 1255 1261 1270 1279 1287 1292 1301 1311 1322 1327 1332 1340 1347 1341 1331 1336 1328 1317 1309 1319 1312 1306 1301 1309 1307 1306 1319 1313 1305 1291 1299 1291 1288 1300 1297 1293 1288 1291 1282 1276 1276 1284 1280 1276 1275 1267 1256 1246 1240 1233 1227 1223 1203 1196 1186 1160 1149 1134 1117 1096 1092 1092 1067 1060 1056 1050 1021 1013 1008 1015 998 1002 1005 985 985 984 982 967 972 975 957 961 964 964 951 955 958 963 954 961 968 963 971 980 989 986 995 1003 999 1009 1017 1026 1027 1042 1042 1054 1056 1069 1081 1088 1096 1100 1097 1086 1076 1060 1049 1034 1028 1021 1024 1023 1020 1018 1018 1016 1016 1022 1019 1017 1014 1004 994 984 971 967 966 960 945 939 927 921 906 901 898 887 877 877 874 860 853 840 818 810 801 793 778 771 765 769 765 776 793 799 811 822 829 828 828 832 813 808 801 789 765 754 748 743 723 717 715 708 710 706 704 704 706 700 688 680 680 672 658 654 652 647 631 615 595 580 574 568 563 553 556 563 558 557 557 561 556 556 558 559 545 548 548 521 509 500 494 476 478 478 459 443 431 434 426 433 442 446 429 429 419 388 369 348 323 294 279 277 271 268 269 269 268 270 277 290 305 319 326 336 336 346 356 366 368 371 372 377 380 387 403 418 422 421 418 411 406 416 410 414 421 429 424 430 441 444 444 444 451 457 468 475 487 492 503 520 529 543 555 570 584 596 620 620 626 614 606 585 570 559 559 549 550 567 573 572 568 575 569 562 561 552 545 528 528 508 500 493 482 472 481 505 525 546 568 592 619 640 663 659 653 653 639 651 667 667 663 669 683 694 700 708 715 730 748 760 764 766 763 759 770 761 751 744 754 740 724 733 717 707 688 688 691 686 687 685 697 706 706 683 657 655 686 703 691 687 677 665 665 669 652 646 675 695 703 703 723 720 717 713 722 718 711 718 726 741 761 770 787 804 799 816 828 846 858 872 894 907 922 950 977 986 1004 1003 982 974 959 950 971 991 1013 1013 1036 1053 1067 1080 1108 1119 1136 1163 1169 1153 1140 1124 1108 1096 1084 1073 1067 1068 1046 1042 1042 1043 1024 1014 1011 998 996 993 989 1013 1004 992 997 977 954 938 936 926 919 908 904 892 892 863 850 840 835 852 869 884 914 927 940 950 973 969 974 999 987 971 949 944 927 927 911 911 896 900 924 943 966 987 1011 1035 1057 1080 1096 1112 1110 1117 1110 1108 1107 1119 1119 1113 1127 1121 1123 1123 1135 1133 1136 1117 1111 1106 1101 1072 1061 1044 1035 1025 1031 1031 1009 1006 1006 1001 983 981 977 949 944 939 925 901 886 873 864 840 828 814 791 776 759 749 754 754 755 779 788 794 796 819 823 823 825 827 815 803 789 772 757 743 718 697 700 729 740 740 745 751 738 723 704 680 651 631 631 633 635 638 644 642 642 645 644 642 641 642 642
1298 1326 1341 1356 1373 1390 1407 1416 1408 1408 1405 1400 1383 1373 1377 1386 1386 1386 1393 1387 1373 1352 1329 1308 1293 1275 1249 1226 1207 1192 1159 1143 1123 1102 1076 1068 1068 1069 1069 1088 1102 1095 1094 1088 1079 1070 1061 1060 1046 1050 1053 1066 1096 1111 1128 1153 1172 1195 1216 1235 1235 1254 1271 1280 1282 1281 1261 1261 1262 1263 1251 1251 1253 1235 1233 1236 1246 1253 1260 1264 1253 1253 1251 1249 1236 1239 1241 1242 1236 1242 1251 1258 1267 1277 1285 1292 1305 1316 1332 1339 1340 1344 1358 1358 1357 1348 1348 1340 1330 1324 1318 1314 1311 1319 1320 1320 1334 1332 1324 1314 1322 1313 1306 1300 1315 1309 1305 1311 1303 1296 1288 1293 1287 1282 1275 1265 1256 1248 1239 1229 1220 1212 1189 1182 1171 1161 1151 1140 1131 1101 1087 1075 1043 1031 1027 1025 1001 994 990 993 977 981 983 965 965 963 963 942 946 949 934 938 942 947 933 937 941 945 936 946 954 948 958 967 977 973 982 991 977 987 995 1006 1003 1014 1029 1044 1050 1064 1076 1079 1088 1094 1092 1082 1075 1062 1049 1036 1029 1024 1030 1030 1030 1025 1030 1025 1024 1030 1027 1020 1013 1003 991 978 965 961 956 950 939 931 922 922 907 900 895 886 878 871 866 850 841 831 818 807 797 787 775 768 757 758 756 767 767 769 785 797 807 802 815 820 806 801 792 779 760 745 737 731 714 705 702 696 694 689 689 684 695 697 684 679 671 664 649 645 642 637 620 608 592 575 568 561 557 549 548 548 545 550 550 549 542 549 553 552 537 528 528 504 497 489 480 469 469 469 451 438 438 422 400 402 413 422 412 417 407 379 358 337 316 289 277 274 269 269 269 269 268 271 271 281 298 304 316 325 335 344 355 361 367 369 374 379 382 386 393 408 417 419 414 414 424 429 427 418 422 437 434 435 445 450 451 451 465 466 475 483 494 501 512 533 539 539 545 570 576 590 610 631 637 626 623 603 587 573 574 568 560 576 580 578 578 584 584 576 567 559 553 545 523 508 500 493 478 477 493 521 531 550 571 597 623 646 651 651 634 625 621 638 653 660 658 675 686 678 684 692 709 731 746 756 759 771 776 777 789 789 783 776 786 775 757 746 731 717 694 708 708 702 697 701 714 716 707 685 665 669 679 700 711 713 703 692 682 683 667 653 681 700 712 721 739 737 733 728 735 728 723 727 727 725 731 743 763 781 791 806 822 840 856 871 892 908 913 933 964 976 995 1010 997 1010 989 978 988 980 998 1020 1043 1058 1077 1092 1114 1126 1146 1166 1165 1149 1135 1123 1110 1095 1098 1088 1073 1058 1038 1032 1029 1026 1015 1009 1002 1012 1010 1012 1012 1033 1026 1012 1016 998 973 951 962 941 921 907 891 888 877 851 842 842 844 867 883 901 930 944 959 970 992 986 991 991 1014 1000 982 978 963 944 927 921 906 906 925 946 969 989 1013 1037 1060 1080 1098 1116 1116 1136 1135 1130 1126 1142 1137 1132 1144 1139 1138 1136 1135 1130 1123 1117 1096 1092 1083 1053 1043 1030 1030 1002 1006 1013 996 993 989 986 962 958 952 949 925 920 913 892 878 862 850 829 817 817 795 781 767 755 763 767 770 779 806 811 815 838 839 838 834 817 808 800 787 769 753 753 731 714 713 720 745 753 757 757 743 727 705 687 663 637 641 640 648 646 649 646 646 645 650 648 646 647 645
1310 1336 1351 1366 1378 1383 1396 1406 1399 1398 1396 1396 1374 1364 1356 1366 1367 1376 1385 1376 1368 1346 1323 1305 1284 1265 1242 1221 1198 1180 1159 1135 1135 1110 1094 1079 1063 1044 1052 1068 1086 1078 1082 1081 1076 1065 1050 1042 1027 1033 1045 1068 1099 1115 1115 1139 1158 1177 1200 1220 1239 1256 1271 1266 1265 1263 1244 1246 1248 1251 1233 1233 1233 1211 1212 1212 1220 1232 1246 1251 1253 1239 1237 1235 1222 1227 1230 1232 1229 1238 1246 1261 1271 1278 1285 1296 1310 1310 1323 1340 1346 1347 1356 1365 1369 1358 1348 1345 1335 1324 1321 1319 1319 1321 1323 1329 1334 1345 1345 1341 1339 1329 1323 1319 1321 1319 1316 1321 1317 1309 1300 1302 1294 1286 1275 1265 1256 1247 1236 1236 1224 1212 1192 1179 1170 1149 1140 1127 1118 1086 1072 1059 1043 1014 1006 1003 981 976 971 973 960 960 962 945 945 944 944 918 923 929 934 919 924 928 913 918 922 927 922 931 940 934 934 943 953 947 956 967 977 967 977 992 989 1002 1016 1033 1041 1059 1068 1073 1081 1087 1087 1079 1076 1072 1062 1047 1040 1034 1034 1035 1036 1035 1036 1033 1031 1037 1028 1020 1012 996 986 975 965 965 959 950 939 933 926 918 906 897 890 882 872 864 855 848 834 825 818 808 795 782 785 774 764 752 739 745 754 751 769 783 793 786 798 808 806 789 782 774 755 737 728 722 715 706 694 679 677 677 676 674 683 686 684 669 662 654 639 638 633 627 613 601 587 580 570 564 558 552 547 542 545 539 539 538 534 539 547 549 538 526 513 494 490 482 482 460 466 461 456 439 430 416 391 382 393 404 395 395 392 369 350 331 309 283 276 272 272 269 269 269 268 269 278 291 311 312 317 324 333 339 351 361 367 369 374 382 386 386 393 394 399 405 399 405 417 422 429 426 427 443 445 442 445 454 460 464 477 479 482 482 496 502 510 526 537 554 564 582 589 596 610 640 645 637 635 616 602 586 584 584 584 583 582 584 583 584 584 574 567 559 550 537 525 512 501 493 479 491 508 540 547 547 556 593 607 629 647 629 611 607 619 633 639 646 661 672 674 669 680 696 714 732 741 741 747 752 767 782 787 797 798 794 803 792 767 768 751 725 710 733 727 711 697 721 721 729 724 708 688 676 692 710 717 727 719 708 695 693 675 663 681 704 719 735 749 748 748 745 755 750 744 748 743 743 737 748 753 773 791 804 820 836 846 862 882 901 908 908 923 946 968 991 1011 1020 1007 999 988 1001 1004 1022 1046 1060 1080 1101 1116 1135 1154 1170 1170 1157 1145 1127 1117 1108 1098 1085 1072 1054 1036 1029 1025 1022 1024 1019 1015 1028 1026 1030 1034 1045 1045 1039 1030 1030 1011 987 963 935 916 896 873 866 860 850 852 858 862 889 900 916 930 945 961 975 1004 1011 1005 1009 1035 1017 993 992 978 961 940 934 913 909 925 947 970 991 990 1013 1038 1061 1083 1101 1122 1145 1156 1157 1151 1163 1154 1150 1144 1151 1146 1141 1124 1116 1108 1102 1088 1082 1074 1048 1038 1026 1013 982 987 997 996 974 970 966 934 932 929 928 903 900 897 880 878 873 858 835 822 808 789 774 762 759 776 784 785 795 824 831 834 854 848 839 827 816 808 803 792 777 761 747 727 723 732 736 758 765 767 761 746 729 709 698 679 656 671 653 651 658 667 659 653 651 656 653 650 651 650
1320 1341 1353 1363 1372 1362 1374 1387 1395 1393 1389 1384 1360 1349 1342 1356 1356 1366 1373 1368 1363 1346 1324 1304 1280 1260 1260 1249 1233 1213 1193 1168 1144 1118 1100 1083 1061 1037 1035 1045 1061 1056 1068 1074 1076 1052 1038 1026 1014 1015 1027 1047 1081 1103 1121 1143 1162 1180 1201 1222 1243 1256 1265 1249 1246 1246 1226 1226 1230 1230 1208 1208 1209 1189 1189 1194 1213 1224 1238 1243 1241 1218 1217 1219 1210 1216 1219 1222 1226 1237 1237 1254 1266 1274 1280 1290 1299 1313 1327 1339 1346 1350 1355 1359 1359 1353 1338 1336 1330 1320 1319 1320 1320 1319 1320 1324 1333 1339 1345 1346 1335 1328 1324 1322 1319 1320 1321 1320 1321 1318 1311 1309 1300 1300 1290 1280 1269 1257 1243 1232 1221 1207 1188 1174 1162 1144 1134 1120 1101 1085 1067 1045 1027 1002 988 988 969 963 957 955 939 941 944 920 919 921 919 893 900 907 914 897 903 909 894 899 899 905 898 908 917 913 921 930 938 933 941 947 957 949 960 976 975 989 1003 1021 1030 1030 1049 1052 1064 1073 1080 1070 1068 1065 1058 1045 1041 1036 1039 1041 1041 1039 1043 1041 1039 1035 1023 1023 1014 995 987 981 972 968 961 949 937 931 924 916 906 898 891 883 874 868 859 852 852 842 832 826 815 801 790 777 768 752 732 732 742 733 745 759 774 769 784 794 794 775 775 774 758 745 732 722 710 700 688 672 666 664 666 662 670 675 675 660 650 643 631 631 629 625 613 605 593 577 568 562 557 552 544 537 537 533 533 533 529 528 537 540 528 525 521 504 491 484 473 455 464 450 441 430 423 409 384 370 377 386 372 371 374 358 358 343 323 294 278 275 271 269 269 269 268 271 287 305 319 319 318 333 340 347 352 369 368 371 374 384 386 390 397 399 400 398 400 403 410 421 429 431 434 447 456 452 449 457 464 472 489 493 494 496 514 513 521 543 551 559 572 586 599 613 625 651 657 647 653 637 618 605 596 592 592 595 590 588 584 579 576 573 566 561 544 533 533 520 501 501 486 491 505 539 561 573 583 610 621 638 642 608 595 596 604 614 626 645 647 655 660 670 676 684 702 722 726 728 737 758 772 781 777 794 803 807 816 806 784 789 768 747 747 766 756 737 715 728 742 741 731 720 708 691 707 721 727 738 730 719 706 702 684 684 672 701 715 727 747 759 762 758 770 767 760 764 767 763 755 762 757 763 784 798 815 815 822 836 853 871 890 907 923 953 973 994 1014 1030 1027 1019 1014 1024 1018 1029 1053 1066 1066 1082 1106 1119 1141 1166 1162 1148 1140 1121 1111 1102 1093 1072 1060 1049 1034 1034 1035 1033 1036 1035 1035 1048 1046 1043 1047 1061 1055 1049 1042 1035 1018 991 971 941 913 892 880 861 851 865 873 873 878 910 914 916 930 960 976 990 1018 1028 1029 1033 1048 1032 1007 1005 987 970 953 943 943 924 913 937 955 972 1001 1017 1040 1063 1087 1107 1126 1153 1170 1181 1175 1174 1167 1163 1160 1150 1150 1143 1121 1112 1103 1095 1074 1065 1056 1029 1016 1004 994 972 969 976 979 948 943 938 909 909 908 906 882 882 881 863 863 861 852 827 815 803 789 770 765 768 790 798 802 810 841 841 849 866 856 843 827 804 800 796 792 765 754 742 730 738 746 751 770 777 774 763 763 747 731 725 709 692 671 662 665 672 680 670 664 660 664 659 655 655 653
1312 1327 1334 1343 1351 1349 1364 1377 1389 1382 1379 1370 1351 1338 1332 1344 1348 1356 1364 1368 1360 1358 1348 1330 1307 1285 1264 1255 1242 1222 1197 1174 1155 1124 1107 1088 1066 1037 1021 1029 1040 1034 1034 1047 1056 1036 1032 1026 1002 1013 1030 1054 1087 1107 1125 1143 1166 1184 1203 1224 1244 1250 1252 1233 1230 1229 1209 1205 1204 1207 1191 1192 1191 1189 1171 1185 1205 1207 1218 1221 1222 1204 1205 1207 1193 1196 1200 1208 1219 1230 1241 1254 1270 1276 1283 1292 1301 1311 1324 1333 1343 1349 1349 1346 1341 1339 1324 1322 1322 1322 1314 1315 1317 1314 1317 1321 1329 1326 1332 1335 1322 1321 1319 1320 1316 1317 1319 1319 1317 1320 1321 1319 1314 1303 1294 1284 1273 1258 1241 1230 1218 1204 1185 1172 1156 1144 1129 1117 1103 1094 1077 1060 1040 1014 998 977 966 954 947 941 923 920 920 920 894 896 897 869 875 883 883 867 874 882 871 875 880 886 882 894 904 913 910 918 926 922 928 934 940 934 949 949 955 965 980 995 1002 1019 1039 1052 1055 1064 1069 1059 1060 1057 1051 1041 1040 1038 1046 1047 1047 1047 1050 1050 1049 1043 1028 1017 1007 996 989 988 976 969 961 949 935 929 922 914 906 898 898 891 882 875 869 856 849 842 834 823 814 803 787 777 769 751 728 716 724 733 730 742 742 737 752 769 783 767 766 765 743 733 724 717 704 693 682 672 658 654 657 653 659 659 666 656 648 641 626 620 619 617 606 598 588 577 565 560 556 551 541 534 533 530 530 530 528 525 520 524 516 516 514 504 494 488 471 452 446 437 432 422 415 400 376 360 360 360 351 356 351 354 340 330 312 286 279 272 269 269 269 269 271 281 298 315 321 321 323 326 339 352 366 369 373 376 380 395 395 395 401 403 406 403 402 407 413 421 432 432 437 447 451 464 464 475 478 486 501 509 515 516 529 526 528 543 566 567 574 593 593 603 620 637 658 669 648 633 619 606 604 601 600 595 594 588 583 577 573 573 572 575 563 547 543 539 523 498 489 500 518 539 571 588 600 608 620 629 624 586 577 588 587 587 603 620 638 645 658 670 687 692 707 716 713 723 738 760 765 766 775 794 802 810 808 820 818 801 800 790 779 784 763 736 725 744 751 747 745 742 730 708 727 736 742 742 753 742 730 726 708 691 683 714 728 736 754 767 773 771 786 783 775 764 782 784 773 791 778 766 762 768 786 803 817 835 854 871 896 912 933 953 984 1002 1023 1043 1046 1041 1041 1055 1048 1041 1061 1072 1084 1092 1122 1136 1149 1166 1160 1146 1134 1123 1113 1099 1086 1064 1051 1041 1040 1041 1045 1048 1054 1052 1050 1048 1063 1062 1062 1072 1065 1058 1049 1040 1024 1001 987 955 923 923 914 892 867 857 884 893 902 935 936 935 944 975 990 1003 1031 1044 1050 1053 1058 1044 1044 1023 1015 993 979 969 955 937 923 950 971 986 1020 1030 1046 1065 1100 1118 1136 1153 1178 1188 1188 1179 1172 1167 1161 1147 1141 1133 1112 1104 1093 1083 1062 1052 1040 1029 1001 990 979 973 957 957 950 940 929 920 900 890 885 883 863 863 863 863 847 846 838 816 806 794 780 777 777 775 792 803 811 817 845 857 866 866 855 834 815 805 794 785 777 763 750 740 738 749 749 759 774 781 786 779 766 750 738 732 716 700 679 673 683 686 691 683 674 670 675 675 667 659 660
1311 1323 1317 1325 1335 1335 1352 1366 1377 1373 1370 1361 1344 1329 1329 1321 1322 1336 1347 1354 1349 1352 1350 1332 1308 1288 1268 1256 1244 1221 1196 1177 1159 1134 1111 1091 1091 1072 1047 1018 1013 996 1008 1025 1032 1009 1011 1006 998 1017 1039 1065 1093 1112 1130 1148 1170 1170 1187 1209 1225 1237 1236 1209 1211 1211 1190 1186 1182 1187 1169 1170 1169 1168 1156 1171 1188 1183 1183 1195 1202 1188 1190 1192 1181 1189 1200 1208 1225 1235 1247 1261 1273 1278 1285 1294 1302 1310 1320 1329 1329 1339 1344 1345 1337 1329 1314 1313 1313 1313 1306 1308 1310 1307 1312 1315 1320 1316 1318 1321 1315 1315 1315 1315 1313 1313 1313 1315 1311 1315 1318 1314 1309 1301 1295 1283 1272 1256 1239 1227 1215 1201 1180 1180 1165 1149 1135 1122 1108 1088 1071 1052 1031 1011 997 979 978 964 953 937 929 909 896 893 883 872 869 845 844 852 860 842 853 863 854 859 861 869 869 880 892 901 898 907 914 905 912 918 923 919 926 940 950 961 973 988 997 1013 1030 1045 1044 1050 1055 1048 1051 1050 1041 1034 1035 1038 1040 1045 1048 1050 1054 1053 1050 1039 1030 1018 1007 999 994 989 975 966 957 944 944 936 929 922 918 907 898 890 882 870 863 851 843 834 829 815 807 798 787 774 766 747 740 721 705 712 709 717 728 724 739 756 768 753 754 750 743 719 716 712 695 683 675 675 660 650 647 642 646 654 659 645 638 633 626 616 612 609 598 592 585 575 563 558 558 553 549 539 531 525 527 528 528 521 512 514 507 506 504 500 487 485 472 449 438 431 431 419 414 406 392 368 351 342 330 332 328 329 312 305 295 276 272 269 269 269 268 268 268 281 292 306 318 319 325 329 343 356 366 370 376 382 391 405 408 405 401 409 410 410 412 411 417 421 440 443 442 462 458 469 477 484 491 496 501 522 530 531 547 544 544 540 561 572 582 604 608 613 621 647 663 664 648 634 624 611 619 611 607 601 597 597 589 586 581 578 577 575 560 549 543 539 519 497 492 504 523 546 561 582 594 591 606 606 609 572 567 566 576 596 611 631 657 662 669 681 693 707 713 703 704 720 743 750 750 749 758 770 781 793 805 817 822 816 810 799 794 789 768 749 745 762 767 756 745 765 758 744 740 749 757 758 764 754 738 735 719 696 694 727 739 746 754 777 785 783 802 802 797 784 788 799 800 807 797 785 772 776 784 801 820 840 862 879 901 922 945 962 969 991 1010 1035 1051 1059 1062 1071 1067 1062 1084 1090 1100 1111 1141 1150 1162 1169 1158 1146 1134 1125 1125 1113 1096 1067 1057 1047 1055 1054 1058 1059 1069 1070 1067 1066 1083 1080 1077 1086 1077 1067 1052 1055 1043 1030 1017 996 969 941 924 898 873 867 897 913 927 957 960 955 959 986 1002 1018 1029 1044 1058 1068 1080 1067 1054 1039 1021 1002 986 982 969 951 933 966 985 1002 1034 1049 1062 1082 1099 1113 1130 1148 1173 1185 1185 1175 1167 1160 1154 1139 1132 1121 1107 1099 1086 1075 1055 1044 1028 1028 1016 1007 999 988 976 965 952 942 927 914 900 884 873 865 855 851 848 847 833 830 830 815 806 797 786 792 789 784 804 817 826 834 860 872 878 872 858 840 820 812 798 787 787 781 768 756 747 751 763 770 787 792 794 782 769 755 743 735 719 701 681 691 700 700 712 704 694 686 691 685 678 669 668
1300 1308 1298 1307 1315 1318 1336 1355 1355 1362 1369 1363 1354 1338 1319 1311 1310 1322 1335 1344 1338 1345 1347 1329 1310 1289 1268 1250 1234 1214 1214 1192 1173 1157 1130 1110 1092 1075 1054 1027 1003 992 983 992 1003 987 989 989 998 1027 1054 1054 1084 1099 1116 1134 1159 1176 1191 1209 1220 1220 1215 1189 1191 1193 1190 1165 1158 1163 1146 1148 1148 1149 1130 1140 1155 1151 1160 1171 1180 1168 1173 1174 1181 1194 1205 1215 1229 1239 1252 1266 1275 1280 1280 1288 1295 1302 1309 1316 1326 1336 1344 1336 1325 1317 1309 1307 1306 1305 1296 1299 1303 1301 1307 1307 1311 1310 1312 1313 1314 1314 1313 1313 1310 1309 1309 1310 1305 1308 1313 1304 1302 1296 1291 1278 1268 1268 1251 1235 1223 1210 1193 1179 1164 1145 1139 1124 1105 1095 1077 1056 1027 1018 1008 995 978 984 984 967 964 943 918 896 889 871 852 846 834 831 837 818 829 846 854 835 843 856 856 856 868 877 875 885 896 893 904 910 915 913 920 932 950 959 970 984 991 1006 1021 1034 1031 1031 1037 1031 1037 1042 1039 1026 1026 1031 1038 1040 1047 1052 1058 1055 1048 1039 1028 1018 1008 1000 1000 995 986 974 964 955 945 942 931 924 923 913 902 892 889 875 860 853 843 830 821 805 805 798 791 775 767 759 732 716 695 696 696 710 716 708 723 743 752 743 741 737 729 717 712 712 692 680 672 667 650 644 641 636 638 645 650 634 630 626 620 610 607 603 599 594 590 582 566 559 556 551 546 536 525 521 524 527 526 514 508 506 495 494 491 488 468 475 473 451 437 428 424 409 403 394 382 360 343 325 306 306 304 311 285 280 279 269 269 269 269 269 268 268 267 284 297 308 318 322 327 331 356 361 365 376 379 387 387 398 409 415 414 417 417 417 419 425 430 434 457 457 454 470 467 469 478 485 495 504 504 517 526 539 551 559 565 562 575 581 595 614 627 633 640 660 662 654 642 635 628 628 637 634 628 621 618 603 594 598 590 583 580 572 559 552 545 532 512 496 495 502 519 519 533 546 563 554 574 588 583 557 559 569 586 619 632 648 673 675 677 683 693 709 709 694 691 701 722 727 722 736 755 758 768 787 800 809 819 822 820 810 800 795 784 784 777 789 782 780 769 774 762 747 754 769 779 776 779 768 753 745 727 707 704 735 749 749 758 777 788 797 811 812 806 793 804 809 814 824 813 802 789 793 787 804 820 850 850 867 893 907 930 950 968 991 1011 1036 1053 1070 1079 1092 1089 1088 1084 1108 1117 1129 1156 1167 1167 1176 1167 1155 1144 1128 1119 1107 1085 1064 1058 1055 1055 1073 1071 1071 1087 1089 1089 1085 1102 1102 1097 1105 1097 1086 1070 1058 1045 1034 1017 1003 975 950 921 897 876 880 910 931 946 976 976 979 975 986 994 1013 1029 1055 1071 1083 1092 1079 1063 1045 1031 1011 994 993 981 964 949 980 980 998 1017 1047 1066 1085 1110 1124 1141 1159 1181 1193 1185 1173 1164 1156 1148 1134 1125 1116 1107 1101 1091 1080 1062 1051 1040 1030 1032 1019 1005 997 983 974 955 948 933 920 900 889 877 863 873 858 847 839 834 825 821 809 800 792 789 808 801 794 804 829 840 850 876 886 886 874 873 858 843 824 814 803 791 783 770 755 747 769 780 787 804 805 797 783 771 759 747 746 734 718 698 695 707 716 712 716 708 699 705 699 693 681 682
1282 1291 1269 1283 1296 1297 1306 1323 1346 1357 1363 1358 1349 1328 1307 1300 1297 1307 1319 1330 1323 1333 1338 1322 1322 1309 1285 1258 1243 1223 1207 1182 1163 1148 1119 1102 1089 1076 1055 1037 1015 994 972 967 978 958 970 976 986 1020 1043 1066 1091 1105 1120 1140 1161 1177 1194 1203 1205 1200 1194 1172 1174 1174 1174 1150 1144 1137 1123 1125 1127 1128 1116 1129 1140 1134 1144 1153 1162 1153 1159 1170 1181 1201 1212 1221 1226 1233 1242 1257 1270 1275 1280 1288 1295 1301 1308 1315 1324 1332 1338 1321 1315 1311 1303 1301 1299 1299 1291 1291 1292 1295 1298 1304 1307 1308 1310 1312 1313 1314 1314 1312 1308 1305 1304 1304 1298 1300 1303 1303 1296 1295 1291 1280 1275 1263 1247 1231 1219 1207 1198 1186 1173 1155 1151 1137 1121 1095 1087 1069 1069 1063 1042 1025 1016 1017 1001 983 976 951 929 904 905 890 865 846 841 825 814 805 807 807 815 807 813 826 829 845 856 866 864 872 882 893 892 902 907 907 915 929 947 956 968 968 974 985 998 1011 1004 1015 1024 1031 1022 1027 1029 1014 1017 1025 1033 1039 1048 1055 1062 1056 1056 1048 1027 1018 1012 1007 1005 997 984 982 972 963 955 954 941 931 925 918 911 901 899 899 883 866 858 846 830 817 804 794 783 769 761 748 726 709 685 680 675 691 703 708 713 713 731 725 729 732 726 703 694 697 674 667 662 656 638 634 636 636 630 633 636 625 625 624 619 606 604 602 593 590 586 577 561 556 553 551 540 530 522 516 518 521 521 506 506 504 488 484 479 473 450 453 457 451 427 420 411 392 388 377 371 346 334 316 291 291 289 286 270 270 270 269 269 269 269 267 268 269 270 293 301 311 325 331 335 347 358 365 372 376 390 390 391 409 415 422 421 426 425 422 433 445 448 450 470 469 465 470 478 476 471 481 487 493 507 513 522 536 548 563 574 576 589 590 601 614 636 649 658 665 664 658 647 648 640 636 647 646 639 631 631 617 607 598 603 588 581 577 563 554 545 538 523 509 513 504 500 517 522 531 543 554 561 573 565 552 570 585 605 638 650 662 674 674 674 669 682 698 701 694 685 704 722 707 714 732 748 750 768 786 793 801 815 815 818 822 816 803 800 798 798 809 801 792 783 779 764 751 773 789 797 791 796 786 766 766 753 735 715 724 742 760 772 792 801 808 821 820 816 806 816 821 826 824 831 820 820 824 808 797 808 831 852 871 894 905 928 946 966 990 1012 1036 1054 1076 1090 1106 1114 1114 1112 1136 1138 1138 1167 1178 1184 1182 1169 1153 1140 1128 1108 1094 1075 1068 1074 1076 1074 1084 1081 1081 1096 1102 1107 1107 1123 1118 1111 1105 1100 1087 1072 1057 1045 1035 1022 996 972 948 914 892 892 879 903 924 948 964 991 996 991 1004 1005 1021 1039 1066 1082 1096 1103 1090 1070 1049 1041 1023 1023 1007 1006 991 975 972 987 1010 1027 1053 1075 1096 1112 1130 1148 1164 1185 1198 1186 1169 1159 1159 1151 1137 1128 1120 1110 1096 1084 1072 1063 1055 1050 1041 1041 1026 1005 1003 987 974 964 953 953 939 924 917 900 887 884 869 854 843 841 827 817 810 802 797 804 821 815 809 817 839 839 852 878 890 897 889 867 851 836 835 820 809 797 780 774 768 765 787 801 805 819 819 812 798 781 769 756 744 731 712 693 713 725 730 725 729 721 713 719 715 709 698 714
1257 1263 1256 1271 1287 1297 1298 1317 1343 1354 1356 1352 1344 1320 1296 1288 1286 1286 1294 1304 1297 1306 1315 1323 1309 1303 1275 1253 1235 1215 1199 1167 1148 1134 1100 1088 1079 1069 1041 1041 1034 1019 989 973 953 947 963 981 996 1032 1053 1075 1097 1108 1122 1144 1159 1173 1193 1203 1188 1189 1184 1158 1152 1151 1154 1128 1121 1119 1105 1106 1104 1105 1104 1114 1125 1134 1119 1129 1142 1152 1152 1162 1174 1193 1206 1218 1229 1236 1244 1259 1269 1274 1279 1287 1291 1299 1307 1313 1321 1326 1327 1318 1314 1309 1301 1298 1296 1293 1287 1288 1289 1292 1297 1301 1305 1306 1309 1312 1313 1317 1316 1313 1314 1306 1302 1299 1292 1291 1292 1295 1287 1287 1285 1276 1272 1259 1243 1231 1219 1210 1203 1193 1182 1170 1177 1161 1143 1130 1120 1098 1082 1079 1062 1044 1029 1032 1016 997 983 961 943 925 930 909 886 886 880 858 840 830 806 796 799 788 791 808 807 826 842 855 852 861 869 880 876 889 900 885 900 910 924 935 950 963 966 976 983 994 988 997 1007 1014 1004 1009 1012 1004 1011 1022 1022 1029 1039 1051 1060 1061 1054 1041 1020 1013 1010 1010 1011 1004 995 993 982 977 967 962 949 949 937 928 924 918 916 905 887 873 863 848 832 818 803 791 777 764 756 739 719 700 677 677 654 650 665 682 679 699 715 706 718 719 714 687 677 679 662 658 652 645 630 627 627 628 621 622 623 617 617 616 612 601 597 596 587 585 579 570 556 552 549 546 533 526 526 516 510 505 507 493 495 494 477 469 463 454 441 437 435 434 415 412 400 380 376 376 364 349 327 319 288 281 276 275 269 268 268 269 268 268 268 270 277 280 286 305 305 313 329 337 343 350 367 375 382 388 403 406 406 421 424 432 432 438 434 430 449 462 462 467 476 477 475 475 485 486 479 488 491 491 500 506 519 532 546 561 576 584 598 598 608 616 635 640 657 670 668 661 653 659 648 645 660 656 649 641 648 635 621 612 616 616 607 607 582 565 552 527 518 514 532 522 504 508 514 519 524 539 549 554 547 563 563 581 599 629 648 665 659 659 656 666 690 699 691 679 687 703 713 696 706 722 738 746 760 770 773 780 797 810 804 809 809 803 807 812 812 830 821 809 791 793 782 766 789 789 805 812 816 805 794 775 760 740 721 731 744 765 782 802 811 817 833 832 826 819 834 832 835 840 853 847 838 842 823 808 810 830 853 874 895 909 929 946 971 993 1016 1016 1036 1054 1080 1095 1108 1125 1132 1155 1158 1160 1187 1194 1191 1183 1163 1149 1133 1120 1099 1083 1073 1075 1083 1090 1093 1101 1095 1090 1108 1115 1121 1125 1137 1130 1120 1110 1096 1083 1070 1049 1039 1030 1030 997 981 960 928 905 889 890 923 940 961 977 1005 1012 1006 1025 1021 1031 1048 1078 1094 1105 1113 1111 1100 1081 1071 1054 1039 1021 1021 1001 983 984 992 1014 1031 1053 1076 1095 1108 1128 1148 1148 1166 1185 1192 1180 1169 1157 1146 1140 1127 1117 1106 1097 1085 1074 1070 1063 1057 1050 1049 1038 1038 1022 1010 999 982 977 967 952 934 928 914 902 898 882 868 853 846 833 819 810 817 814 814 837 833 825 820 837 849 864 888 904 902 887 868 855 845 835 823 807 792 793 794 794 784 809 808 815 830 826 812 796 779 767 755 744 730 711 700 727 739 743 737 740 740 733 738 732 728 724 729
1243 1246 1243 1257 1271 1284 1295 1311 1339 1348 1351 1351 1348 1331 1309 1287 1269 1276 1282 1290 1283 1287 1293 1301 1293 1293 1269 1251 1230 1208 1187 1153 1131 1131 1113 1081 1068 1057 1021 1014 1012 1004 975 961 947 951 978 989 1009 1038 1059 1080 1097 1109 1109 1122 1134 1149 1163 1179 1175 1175 1168 1139 1132 1129 1129 1104 1096 1099 1105 1085 1080 1090 1089 1097 1097 1105 1097 1109 1121 1148 1157 1167 1179 1196 1209 1221 1229 1240 1252 1265 1267 1271 1275 1283 1288 1288 1296 1301 1311 1317 1320 1311 1307 1304 1301 1293 1290 1288 1284 1285 1288 1292 1297 1300 1303 1306 1306 1310 1314 1318 1319 1319 1314 1303 1297 1294 1286 1284 1284 1285 1274 1277 1278 1274 1270 1257 1242 1232 1232 1222 1212 1205 1197 1186 1177 1162 1144 1133 1125 1109 1091 1088 1075 1062 1047 1044 1028 1008 983 999 979 963 966 952 934 908 897 875 853 840 814 794 784 775 776 788 807 808 825 840 837 837 847 857 852 860 872 880 895 906 918 927 943 956 966 964 972 979 974 983 991 998 987 991 995 989 997 1007 1019 1029 1041 1053 1060 1055 1045 1031 1019 1012 1011 1013 1011 1005 1001 1001 997 991 986 977 965 951 937 934 930 925 918 909 889 876 862 847 832 818 803 786 773 774 761 746 732 716 698 674 654 632 637 658 662 682 694 690 704 706 701 674 665 663 663 648 648 642 629 622 620 621 617 617 617 611 611 610 607 596 592 589 587 578 572 562 559 552 547 543 534 529 523 513 503 495 490 474 479 479 477 449 447 445 433 427 418 418 403 401 397 381 371 368 356 330 312 299 288 269 268 268 269 269 269 269 267 267 267 272 276 284 290 312 321 325 329 349 353 359 379 386 394 400 416 421 423 432 436 444 444 456 452 444 438 462 472 475 479 479 476 479 493 494 486 493 500 498 497 503 516 516 529 547 563 578 584 598 613 628 645 653 662 679 676 670 664 670 663 659 660 666 657 657 670 667 654 635 639 629 621 602 581 561 543 529 533 538 532 536 524 514 518 515 515 516 521 532 534 549 566 589 610 621 633 647 659 643 657 674 690 691 679 669 683 683 694 685 698 714 726 757 761 768 773 776 789 797 786 788 795 803 821 827 829 843 833 833 820 823 812 796 782 808 821 824 822 810 798 781 765 745 731 743 746 767 788 808 808 820 829 847 846 841 852 847 852 855 866 863 857 854 836 820 814 828 850 874 895 895 912 933 947 970 994 1016 1038 1055 1076 1083 1102 1120 1139 1163 1171 1178 1187 1195 1190 1180 1152 1152 1142 1130 1110 1093 1081 1089 1100 1102 1103 1108 1103 1100 1108 1126 1135 1140 1140 1131 1119 1107 1099 1086 1074 1051 1039 1027 1009 982 966 948 928 901 895 908 944 960 974 988 1021 1030 1025 1043 1043 1041 1041 1072 1088 1103 1113 1117 1107 1091 1086 1068 1052 1038 1032 1010 997 1002 1002 1014 1032 1043 1056 1073 1090 1114 1130 1148 1171 1187 1195 1181 1177 1163 1151 1147 1134 1121 1109 1103 1091 1077 1077 1077 1071 1065 1065 1054 1044 1028 1026 1008 988 994 981 963 942 941 928 915 898 885 869 856 853 840 828 825 835 832 832 851 845 833 828 849 861 875 888 913 903 885 883 869 858 858 842 819 803 807 813 805 808 823 821 828 830 827 810 793 783 772 760 746 730 710 710 725 738 752 754 757 750 743 749 744 740 735 738
1224 1229 1229 1242 1258 1258 1272 1291 1305 1318 1341 1348 1346 1324 1299 1278 1269 1266 1273 1278 1269 1272 1276 1285 1281 1281 1267 1265 1250 1229 1201 1173 1148 1117 1093 1074 1049 1035 1017 998 987 980 954 944 943 963 985 997 997 1020 1037 1058 1082 1096 1106 1119 1120 1136 1152 1167 1163 1158 1148 1123 1115 1109 1110 1087 1078 1085 1085 1068 1067 1068 1064 1072 1077 1085 1101 1113 1129 1153 1161 1171 1183 1196 1209 1221 1231 1246 1258 1258 1262 1264 1266 1270 1273 1284 1293 1298 1306 1311 1312 1303 1301 1298 1296 1287 1285 1284 1279 1282 1282 1286 1291 1295 1298 1300 1306 1312 1317 1319 1320 1319 1315 1298 1293 1289 1280 1277 1274 1272 1265 1269 1269 1268 1271 1269 1256 1245 1233 1222 1213 1204 1197 1186 1170 1154 1141 1133 1126 1115 1099 1089 1080 1080 1073 1064 1052 1037 1018 1013 999 980 979 966 953 928 912 888 865 849 822 800 782 772 769 769 777 777 791 807 806 818 831 842 837 848 862 879 892 902 913 919 931 944 955 950 950 959 953 965 975 982 980 984 987 984 992 1005 1018 1029 1043 1053 1057 1051 1039 1028 1020 1020 1013 1010 1007 1002 1001 992 994 992 989 976 964 951 939 939 933 927 917 907 890 875 855 855 842 826 815 801 787 780 767 749 732 718 703 677 654 632 622 640 647 666 674 671 671 688 694 676 663 653 648 630 633 633 620 611 613 616 614 613 612 606 604 602 600 590 590 587 583 576 572 567 558 548 542 537 531 527 521 511 499 488 475 464 467 465 457 442 433 434 423 422 416 402 391 388 385 368 359 354 345 313 296 284 276 267 267 268 266 266 268 268 267 268 269 281 286 292 298 321 331 336 343 359 363 371 394 402 415 416 443 431 431 448 443 446 453 466 467 462 460 475 478 479 482 481 481 485 505 504 489 497 506 511 508 513 507 514 525 544 558 574 579 597 613 630 648 665 674 689 691 682 682 688 683 676 674 685 681 674 688 681 673 656 646 634 618 587 569 548 532 551 556 556 556 562 548 535 543 537 528 521 523 520 531 545 563 584 604 604 618 628 635 649 664 664 685 681 678 667 660 670 675 689 706 723 738 743 747 754 765 768 772 779 771 776 794 794 816 829 838 850 850 843 833 838 820 803 796 825 832 830 824 813 801 785 771 754 754 760 763 759 770 796 816 830 840 861 863 858 867 865 868 868 886 880 871 860 842 842 827 833 831 847 869 888 907 928 943 969 993 1016 1032 1048 1067 1085 1103 1118 1138 1165 1180 1180 1192 1196 1191 1185 1155 1146 1136 1123 1104 1090 1083 1103 1108 1112 1110 1114 1114 1114 1120 1138 1138 1145 1144 1135 1123 1111 1089 1076 1064 1041 1029 1012 996 976 960 938 918 905 912 928 967 984 984 994 1022 1038 1047 1062 1062 1059 1057 1085 1099 1113 1121 1125 1114 1101 1099 1084 1067 1051 1042 1042 1024 1022 1022 1024 1031 1061 1074 1087 1101 1127 1140 1158 1181 1194 1201 1190 1185 1173 1160 1156 1156 1141 1128 1121 1107 1093 1084 1084 1079 1073 1071 1060 1047 1036 1039 1023 1006 1007 988 969 953 947 947 932 918 897 882 867 849 837 836 836 848 848 848 866 856 840 838 861 873 888 902 915 921 907 910 896 875 859 839 817 807 825 826 823 825 838 841 843 840 822 809 794 795 785 774 762 745 726 715 736 751 765 765 768 761 754 749 755 750 745 745
1192 1203 1201 1214 1229 1250 1265 1284 1300 1318 1334 1344 1345 1313 1286 1267 1259 1256 1261 1266 1255 1255 1257 1259 1252 1267 1274 1265 1245 1228 1201 1171 1147 1119 1091 1075 1055 1035 1017 993 973 959 951 940 936 943 968 986 1002 1014 1030 1051 1076 1085 1101 1110 1110 1120 1139 1156 1149 1141 1131 1123 1107 1095 1091 1073 1067 1068 1069 1055 1053 1058 1053 1060 1066 1079 1107 1120 1140 1153 1163 1173 1184 1184 1196 1209 1222 1235 1247 1254 1253 1258 1262 1265 1269 1279 1289 1298 1300 1304 1305 1296 1294 1292 1292 1284 1281 1279 1273 1275 1278 1284 1287 1293 1296 1300 1305 1313 1318 1319 1320 1317 1309 1292 1287 1283 1277 1273 1270 1266 1258 1259 1263 1268 1264 1263 1254 1241 1231 1221 1212 1202 1194 1180 1152 1142 1135 1135 1118 1115 1109 1099 1083 1078 1075 1058 1053 1042 1030 1029 1012 1002 990 973 960 939 920 899 873 873 857 833 807 791 772 760 765 761 775 790 789 802 814 827 830 847 863 879 889 898 898 901 911 920 931 923 933 944 944 958 970 977 974 976 978 984 991 1003 1017 1029 1043 1043 1053 1054 1050 1040 1034 1024 1016 1011 1009 996 989 992 989 990 987 973 961 951 942 941 933 933 920 914 904 888 868 851 837 826 816 806 794 783 770 755 735 717 703 677 652 631 631 614 610 635 646 658 657 675 682 666 654 642 632 617 623 625 611 607 610 613 611 610 610 607 601 597 595 586 583 579 577 571 569 565 556 547 540 534 529 525 518 511 494 494 482 461 457 458 449 427 421 421 413 410 399 390 377 375 375 368 350 333 326 291 291 282 273 266 266 266 268 268 267 267 279 278 277 281 301 305 310 326 336 347 355 370 370 378 405 410 422 435 465 455 447 448 453 454 463 472 476 480 481 484 480 481 484 484 485 486 508 518 511 497 518 522 520 527 519 513 524 538 551 564 585 598 612 628 635 647 666 680 698 703 698 707 701 696 689 702 696 691 698 686 677 663 630 615 604 587 576 556 535 559 570 577 572 573 560 549 564 555 544 534 535 522 526 545 551 569 586 566 578 598 618 640 658 672 676 670 668 660 655 660 671 689 709 726 736 720 729 747 760 747 754 760 753 762 776 796 813 830 841 850 858 854 849 844 822 808 812 834 840 835 836 825 815 804 793 777 762 760 784 781 779 802 822 837 851 872 877 875 882 882 885 885 907 903 894 880 863 846 836 847 841 845 867 883 899 922 944 972 993 1012 1031 1046 1062 1062 1093 1110 1126 1154 1169 1188 1197 1192 1185 1174 1151 1140 1128 1117 1095 1087 1090 1103 1120 1121 1121 1124 1122 1127 1130 1146 1148 1148 1140 1128 1115 1102 1079 1065 1053 1041 1020 1005 990 981 964 964 942 917 916 929 968 983 1001 1015 1042 1054 1067 1062 1081 1080 1076 1100 1111 1123 1130 1136 1124 1124 1124 1112 1100 1085 1077 1057 1042 1022 1039 1042 1047 1082 1095 1105 1115 1138 1152 1167 1189 1204 1204 1209 1203 1191 1180 1168 1164 1151 1134 1126 1110 1099 1091 1093 1087 1080 1079 1066 1056 1048 1049 1036 1036 1019 1016 997 979 963 945 929 914 895 877 862 848 844 847 849 869 866 867 866 863 863 848 859 873 887 901 928 929 919 917 897 877 857 835 820 822 825 842 838 840 858 858 857 849 826 814 806 791 781 770 759 737 723 724 736 762 779 777 778 769 763 759 763 763 758 753
1174 1185 1187 1205 1225 1248 1258 1277 1295 1316 1330 1339 1336 1305 1278 1278 1257 1240 1244 1248 1239 1241 1241 1241 1237 1249 1256 1254 1235 1226 1202 1166 1140 1117 1093 1070 1070 1054 1033 1014 989 969 952 937 932 941 956 983 997 1003 1020 1039 1062 1069 1088 1102 1098 1109 1109 1126 1128 1132 1124 1115 1090 1077 1072 1055 1055 1057 1058 1041 1042 1048 1047 1058 1069 1091 1112 1112 1126 1146 1155 1164 1174 1184 1194 1207 1220 1233 1245 1249 1245 1252 1258 1263 1266 1275 1286 1294 1293 1297 1299 1293 1290 1288 1286 1278 1275 1273 1267 1270 1274 1279 1281 1288 1293 1298 1304 1312 1318 1319 1319 1316 1310 1293 1286 1281 1270 1267 1264 1260 1251 1252 1255 1260 1254 1253 1249 1236 1227 1218 1210 1204 1196 1181 1167 1141 1128 1123 1098 1096 1092 1087 1069 1067 1063 1046 1046 1041 1045 1019 1010 1006 990 984 973 962 944 926 907 883 865 842 816 799 776 753 750 746 758 774 789 785 797 810 805 829 848 862 875 884 892 891 901 908 915 905 917 930 944 950 962 970 967 970 974 974 981 991 1003 1015 1027 1041 1051 1056 1053 1045 1034 1030 1024 1018 1014 996 986 986 982 984 982 976 967 957 950 942 937 926 920 908 897 884 870 854 842 828 824 814 801 782 766 753 753 723 712 697 673 650 630 610 595 611 629 646 645 664 673 653 641 630 620 609 616 616 617 607 603 607 605 607 606 604 597 592 589 577 574 572 572 567 566 564 556 546 538 538 531 527 521 513 496 487 474 454 449 448 438 423 412 412 413 395 384 376 359 359 359 356 340 328 310 284 272 269 267 266 267 268 268 270 269 274 285 286 288 293 309 314 314 328 335 342 356 373 384 395 405 432 446 459 480 479 472 462 461 461 466 477 483 483 490 499 489 483 484 488 487 490 520 524 518 506 532 535 531 541 535 525 525 541 541 559 576 601 612 622 650 656 672 686 710 715 713 729 725 718 711 719 711 706 698 678 678 667 625 608 602 593 563 544 543 582 589 593 587 587 575 568 564 577 563 551 546 546 530 522 529 539 551 553 569 593 620 632 649 668 676 653 656 651 658 670 682 691 713 713 722 709 709 724 739 731 740 750 753 753 770 791 798 812 837 854 868 864 856 844 844 826 823 839 845 846 836 826 818 806 799 784 774 781 805 802 795 807 825 841 860 868 883 891 887 896 898 902 919 913 903 887 868 857 853 865 856 852 864 881 896 919 944 948 975 995 1019 1034 1049 1071 1097 1114 1132 1156 1174 1193 1196 1185 1176 1164 1151 1133 1121 1109 1099 1093 1094 1103 1124 1129 1129 1134 1132 1138 1144 1157 1153 1148 1140 1122 1109 1095 1068 1055 1042 1042 1038 1026 1014 1000 984 965 942 918 931 953 988 1000 1015 1034 1062 1073 1086 1084 1102 1101 1098 1119 1120 1125 1136 1155 1150 1138 1136 1122 1110 1097 1082 1066 1049 1034 1053 1059 1067 1091 1103 1115 1115 1131 1145 1160 1178 1194 1209 1211 1207 1196 1186 1176 1172 1159 1142 1132 1117 1110 1099 1102 1096 1089 1099 1089 1079 1070 1071 1057 1045 1033 1024 1001 982 965 947 931 915 898 878 863 850 854 863 863 894 892 887 887 889 870 853 870 885 900 915 939 940 932 917 895 873 853 839 839 839 843 864 859 855 872 869 855 840 814 806 799 782 773 763 752 731 729 733 745 770 785 785 791 784 778 772 773 769 761 748
